# .PCD v0.7 - Point Cloud Data file format
VERSION 0.7
FIELDS x y z
SIZE 4 4 4
TYPE F F F
COUNT 1 1 1
WIDTH 1616
HEIGHT 1
VIEWPOINT 0 0 0 1 0 0 0
POINTS 1616
DATA ascii
-5.827324 23.79786 -0.6842753
-9.835503 27.02941 -0.6842358
-10.60541 26.24307 -0.6835569
-9.051188 26.22145 -0.6835567
-8.587783 27.46035 -0.6828954
-6.56632 26.23279 -0.6820564
-9.769346 26.64482 -0.6818035
-10.15179 24.97359 -0.6795068
-7.758892 23.44614 -0.6787776
-8.147319 27.36777 -0.6787457
-9.02891 26.6652 -0.6786767
-5.34341 24.16651 -0.6786227
-6.153175 23.72522 -0.6768436
-5.069734 24.6208 -0.6764452
-6.165713 26.19612 -0.6747449
-9.314116 24.60583 -0.6746922
-9.790339 24.61539 -0.6729561
-6.619401 23.79307 -0.6728406
-8.972234 27.35481 -0.6669928
-8.919109 26.97932 -0.6644065
-5.799883 25.82584 -0.6639818
-10.64208 25.79902 -0.6633617
-7.722422 27.0004 -0.6592939
-5.051715 24.16961 -0.6527525
-7.353686 23.87096 -0.6489223
-9.446888 22.95119 -0.6473844
-13.46627 21.77057 -0.7373149
-11.43648 23.88414 -0.7369702
-12.71318 23.46458 -0.7336937
-14.16143 23.28501 -0.7321271
-12.15192 23.4395 -0.7313053
-12.96623 23.0169 -0.729943
-12.62064 21.01843 -0.7288021
-13.82506 24.61645 -0.7287232
-12.21009 21.41724 -0.7283278
-13.82478 23.77137 -0.7276396
-11.37834 22.22764 -0.7272043
-13.02468 24.24664 -0.7269628
-10.55879 22.71447 -0.7253098
-11.0119 23.88569 -0.7252938
-13.3906 24.17405 -0.7252399
-10.98701 24.21432 -0.7250747
-12.98242 22.58063 -0.7248144
-12.5978 24.64784 -0.7247947
-12.62263 22.56522 -0.7244583
-11.46835 21.40903 -0.7233763
-11.85647 21.82148 -0.7225662
-12.57038 25.48374 -0.7223358
-14.54447 24.21041 -0.7220941
-14.15665 24.283 -0.7217572
-12.53607 21.79812 -0.7216945
-11.37906 24.24537 -0.7214025
-12.97184 24.55752 -0.7209783
-10.19884 22.54428 -0.7209729
-13.43409 23.45969 -0.7208399
-13.36837 25.42091 -0.7205912
-12.94574 21.41928 -0.7203664
-12.97272 23.8117 -0.7199898
-12.95554 25.39402 -0.719903
-15.82738 23.81245 -0.7198784
-11.77014 24.68101 -0.7194377
-11.34943 23.03442 -0.7193709
-15.3994 23.35841 -0.7191137
-12.57115 24.15515 -0.7188007
-11.41117 24.59836 -0.7187587
-14.22656 22.97329 -0.7185192
-11.39014 21.71681 -0.7183349
-10.17861 22.30519 -0.7182777
-12.22951 22.1951 -0.7182436
-10.57112 23.74872 -0.7181141
-12.98777 24.95992 -0.7180869
-12.22824 24.2621 -0.7180396
-12.64332 22.93727 -0.7179569
-14.18537 23.93868 -0.7176362
-12.58903 21.4135 -0.7170736
-10.22648 23.85499 -0.7166017
-13.77224 24.9894 -0.7160853
-10.98409 22.99656 -0.7157278
-10.58731 24.67491 -0.715394
-14.61969 22.56792 -0.7153633
-14.63848 24.60818 -0.7148201
-13.06623 21.00375 -0.7146919
-12.20689 25.48094 -0.7146581
-14.22736 24.56791 -0.7133595
-11.36357 25.02295 -0.7132418
-11.44985 25.45453 -0.7131276
-11.81411 24.29284 -0.7130592
-11.40197 22.68231 -0.7130013
-10.61394 22.16319 -0.7125847
-13.39467 25.03706 -0.7123362
-11.79639 21.33778 -0.7122939
-10.258 23.40945 -0.7122027
-13.83363 23.32264 -0.711985
-11.01595 24.65392 -0.7115344
-13.40822 21.01476 -0.7111571
-10.56682 23.45774 -0.7110798
-13.84178 23.06092 -0.7109328
-9.77775 23.01313 -0.7109243
-10.26855 24.18958 -0.7103027
-9.37523 22.62512 -0.710156
-9.790954 23.39168 -0.7098922
-10.20434 24.56367 -0.7093496
-11.02491 24.98323 -0.7090765
-12.60907 22.11356 -0.7090573
-9.843426 22.55294 -0.7089148
-14.16132 24.99978 -0.7086138
-11.78008 25.41999 -0.7082865
-11.00383 25.38542 -0.7073432
-14.5259 23.01432 -0.7071529
-12.19629 24.64604 -0.7071469
-10.98206 25.81312 -0.7070121
-12.17713 21.85411 -0.7068527
-12.21506 24.89915 -0.7066171
-11.79696 26.22779 -0.7063501
-11.79619 22.1947 -0.7061929
-11.7503 22.65783 -0.706067
-11.80169 25.76543 -0.7059975
-12.16572 23.00817 -0.7054009
-13.37563 23.81696 -0.7050673
-10.23338 23.00421 -0.7042123
-10.59909 23.01542 -0.7037156
-13.02879 21.8473 -0.703643
-12.57645 25.80084 -0.7025328
-11.39698 26.55602 -0.7016136
-10.55028 22.27417 -0.7015509
-11.43589 26.20082 -0.7007625
-13.36492 22.26548 -0.6998799
-11.47271 25.8051 -0.6993652
-12.20598 25.85101 -0.6992677
-10.61206 24.16389 -0.6973814
-12.18984 22.53218 -0.6964321
-14.6614 22.18936 -0.6956615
-11.05615 26.18805 -0.6900769
-14.64455 23.77339 -0.6896255
-10.59054 25.3465 -0.6882171
-15.31556 22.97231 -0.6847676
-11.84089 24.99557 -0.6809021
-15.08531 23.07183 -0.6758689
-13.77451 25.42775 -0.6648372
-10.56082 25.02483 -0.6632324
-13.44872 20.25704 -0.6552257
-13.74468 21.30529 -0.6464991
-13.91423 21.27868 -0.6461361
-14.12025 21.50049 -0.6393718
-15.37452 24.43484 -0.6387554
-11.0016 22.14488 -0.6362737
-15.09243 23.09929 -0.6361362
1.303087 -28.08495 -0.5159748
0.2165852 -28.45284 -0.5084783
0.64147 -28.20921 -0.4925185
0.967688 -26.56106 -0.4903106
0.02727318 -25.09037 -0.4794317
0.7098165 -26.16942 -0.4781206
1.632988 -27.16005 -0.4710794
1.813857 -27.41436 -0.4682485
0.2788353 -25.48514 -0.4674042
0.4866467 -25.82095 -0.4642809
1.773361 -27.73493 -0.4569921
10.13955 -26.2967 -0.5369114
9.943802 -26.25421 -0.5363674
10.54903 -26.37654 -0.5226825
9.897626 -26.2323 -0.5133861
9.08071 -24.67081 -0.5129332
9.372437 -24.64463 -0.5110601
9.76786 -24.9776 -0.5104314
9.8173 -25.83683 -0.5076746
10.66751 -26.55128 -0.5057867
10.57598 -26.62107 -0.5036449
10.17277 -26.50663 -0.4976984
9.449272 -25.02995 -0.4960483
9.486813 -25.37485 -0.4892244
6.088571 -26.53555 -0.4880527
9.85259 -25.83324 -0.483731
9.770534 -25.39668 -0.4773705
5.938538 -26.66802 -0.4528704
6.177566 -26.22542 -0.4418332
18.59145 -22.14968 -0.7718183
19.816 -20.97834 -0.7681583
18.18375 -22.15147 -0.7657167
17.41972 -22.97845 -0.7640479
17.40641 -22.17131 -0.762462
17.88657 -22.21335 -0.7622333
17.75047 -22.51192 -0.7607203
19.72051 -20.63427 -0.7606183
19.43568 -21.121 -0.7605574
20.15117 -20.1797 -0.7601001
17.41889 -22.67545 -0.7584723
18.91898 -21.07015 -0.7576188
19.03463 -21.33303 -0.7574555
19.33223 -20.63121 -0.7562001
16.99017 -22.56554 -0.7549688
17.84376 -21.72659 -0.7514739
18.24028 -21.79276 -0.7505634
19.77164 -20.17832 -0.7505516
16.5653 -23.37966 -0.7495511
18.55851 -20.22126 -0.7493601
18.20134 -21.02679 -0.749127
17.34964 -21.7508 -0.74842
16.2023 -23.80129 -0.7482842
16.20832 -22.97801 -0.7463613
19.00352 -19.82813 -0.7453562
19.42027 -19.81025 -0.7452304
18.92252 -20.5985 -0.745105
18.62977 -20.66537 -0.7446011
18.93477 -20.28488 -0.7445967
16.18418 -23.42052 -0.7426278
17.4054 -20.98308 -0.7420595
18.61094 -19.81473 -0.7418125
17.82568 -20.19607 -0.7411013
18.62262 -21.06501 -0.7408676
18.60881 -18.98168 -0.7408418
18.61778 -21.40667 -0.7402492
17.79693 -20.9753 -0.7364448
17.06308 -23.06794 -0.7360536
18.22373 -20.14509 -0.7352959
18.96603 -19.47048 -0.7348113
18.60424 -19.34612 -0.7341467
18.61063 -18.62961 -0.7339715
17.83794 -21.21824 -0.7338377
17.80993 -19.73921 -0.7323067
16.52315 -22.61168 -0.7308545
18.18935 -20.59957 -0.7280284
18.1947 -18.99115 -0.7276173
17.38045 -20.16352 -0.727272
18.14878 -18.62546 -0.7271734
17.49598 -21.38475 -0.727169
18.19186 -19.45428 -0.726259
18.17105 -19.84541 -0.7252969
17.01447 -21.83799 -0.7243423
17.80631 -18.18401 -0.7239434
16.20814 -21.77789 -0.7238946
15.80367 -22.1803 -0.723878
16.62463 -20.16664 -0.7237812
18.14014 -18.1978 -0.7231475
17.35068 -20.5126 -0.722995
17.79442 -20.68438 -0.7229648
15.86357 -20.55103 -0.7217922
16.63726 -22.23587 -0.7216394
16.26029 -21.43866 -0.7216341
17.46053 -18.61498 -0.7214842
16.54949 -19.00535 -0.718497
17.77989 -19.31598 -0.7182434
15.43975 -22.5428 -0.7180875
16.22036 -20.14961 -0.7175685
16.97062 -18.98018 -0.7175028
17.40534 -19.82754 -0.7172684
16.6007 -17.78936 -0.7168972
16.12178 -22.56228 -0.7167674
15.75097 -22.95064 -0.7159626
16.95111 -20.99288 -0.7155299
16.65269 -21.08257 -0.7153492
15.79113 -19.36538 -0.7152106
17.02794 -20.13336 -0.7151106
17.4468 -19.03264 -0.7144135
17.30864 -18.19459 -0.7142857
17.72293 -17.84512 -0.7136934
17.78679 -18.97616 -0.7125826
16.60985 -19.72989 -0.7124383
16.20872 -19.09249 -0.712311
15.81509 -21.82377 -0.7123038
17.01792 -18.1788 -0.7122808
16.19101 -20.57736 -0.7121827
16.61343 -20.7069 -0.710821
17.70091 -18.60776 -0.7104385
16.20228 -18.21018 -0.7100201
16.98454 -20.57986 -0.7090772
14.97936 -21.39716 -0.7090625
15.80079 -19.03876 -0.708977
17.46863 -19.4161 -0.7084523
16.63441 -18.21947 -0.7084386
16.99854 -18.58928 -0.7080169
16.14702 -18.65139 -0.705318
16.20573 -20.93473 -0.7051401
16.63865 -21.8466 -0.7049116
15.43869 -19.72688 -0.7043966
16.50798 -21.34592 -0.7040573
15.40048 -22.21986 -0.7039824
17.38041 -17.79592 -0.7038881
16.13391 -19.41331 -0.7033644
15.0177 -22.16089 -0.7013959
15.82362 -22.58381 -0.7008793
16.99758 -19.86291 -0.7006324
15.00148 -21.05772 -0.6999437
15.86805 -23.47795 -0.6997842
15.02048 -19.78063 -0.6991524
15.78222 -20.226 -0.6989928
17.0276 -17.42006 -0.698343
16.19332 -19.82327 -0.6979613
16.65913 -19.36684 -0.6979602
15.31451 -21.05403 -0.6975633
16.59066 -18.61187 -0.6966093
15.28798 -19.4179 -0.6964449
16.20403 -22.20833 -0.695503
17.0174 -17.76741 -0.6936464
14.89992 -20.14452 -0.6933794
15.06881 -19.41407 -0.6932321
15.90264 -19.89479 -0.6920829
15.75348 -18.60196 -0.6897527
15.77807 -20.98626 -0.6891677
15.39487 -21.40771 -0.6878904
14.58406 -21.34381 -0.6869642
14.21513 -20.66911 -0.6836439
15.41401 -20.58807 -0.6835238
16.71202 -22.97978 -0.6817635
15.39093 -19.00172 -0.6810581
15.40619 -21.85318 -0.6797623
14.17353 -21.03869 -0.6713079
14.53384 -20.59057 -0.670167
14.98239 -21.81516 -0.6662962
15.33569 -20.2705 -0.6651924
15.82645 -21.4784 -0.6623254
15.0479 -20.61604 -0.6612651
13.83569 -20.19146 -0.6586538
14.62807 -20.1464 -0.6548108
14.65898 -19.40622 -0.6526737
14.5941 -19.77728 -0.6523895
14.59189 -21.04387 -0.6452411
14.2903 -20.18514 -0.6232991
21.00277 -18.62591 -0.7716901
20.57057 -18.26001 -0.7636941
20.62659 -18.56159 -0.7620535
20.9343 -19.00373 -0.7581583
21.02958 -19.42744 -0.7579964
20.48477 -20.25448 -0.7579325
20.7001 -15.37375 -0.7578639
20.52123 -15.01455 -0.7567074
21.43001 -18.93235 -0.7566119
21.36633 -15.79122 -0.7556251
21.43711 -16.13448 -0.7555754
20.62908 -18.92374 -0.754832
19.87692 -19.81524 -0.7518479
19.78332 -19.03246 -0.7517901
20.1645 -18.1954 -0.7513809
20.20497 -19.06195 -0.7508996
21.78756 -16.21034 -0.7499214
21.6833 -17.36806 -0.7497274
19.76359 -19.37902 -0.749483
20.98813 -15.45226 -0.7494038
19.03039 -18.99376 -0.748852
19.38583 -19.02999 -0.7483193
20.21285 -14.98657 -0.7478655
21.84932 -15.44162 -0.7475581
21.39733 -15.3537 -0.747247
19.7946 -18.17754 -0.7465621
19.80568 -14.55609 -0.7463179
20.59762 -19.31654 -0.7462686
20.17082 -18.58192 -0.7449806
21.47846 -17.02304 -0.744605
19.43265 -14.57617 -0.7432185
21.06214 -15.79209 -0.7424277
19.44297 -18.0599 -0.7422907
21.36979 -18.24028 -0.7420071
19.86772 -17.80256 -0.7415822
19.83948 -14.94554 -0.740979
19.40865 -17.37544 -0.7398049
18.94875 -16.99961 -0.7385651
21.7815 -16.59766 -0.7381716
19.29599 -17.10171 -0.7357252
18.98734 -18.15515 -0.7347132
18.93905 -16.71853 -0.7336222
18.61124 -16.53746 -0.7325389
18.61097 -18.14386 -0.7324437
19.10845 -17.3214 -0.7309516
18.53975 -17.77292 -0.7289776
18.29011 -16.61962 -0.7286764
21.09982 -14.1436 -0.7284121
19.08268 -17.79527 -0.7274789
19.00707 -18.61921 -0.7272921
18.5109 -16.20468 -0.7272044
18.1963 -17.00103 -0.7235368
18.18676 -16.26222 -0.719004
18.19965 -17.77664 -0.7188823
18.15489 -17.48684 -0.7184585
17.80668 -17.38353 -0.7158698
17.71454 -17.02727 -0.7101044
17.40298 -16.98653 -0.70964
17.45028 -17.44898 -0.709212
17.73082 -16.65095 -0.6945602
23.38553 -13.68579 -0.7865909
23.46096 -14.18922 -0.7789952
21.81328 -11.04852 -0.7785282
22.69547 -13.80556 -0.7772909
23.06198 -13.72709 -0.7761015
22.2557 -10.17306 -0.7760852
21.91735 -11.41255 -0.7726173
23.32854 -12.59182 -0.7704628
22.93318 -13.53153 -0.7704383
22.57337 -13.48399 -0.7655879
22.16253 -11.79694 -0.7630683
22.19636 -12.55148 -0.7625026
21.84539 -12.20008 -0.7503037
22.16448 -12.1688 -0.7494985
21.8734 -13.01931 -0.7453951
20.97003 -13.88728 -0.7445851
21.83851 -12.55436 -0.74058
21.84462 -13.85614 -0.7390216
21.80142 -14.15075 -0.7382581
22.09038 -11.38819 -0.7345797
21.87559 -13.44434 -0.7344157
6.642716 32.31845 0.27363
6.514438 28.25428 2.080287
6.196966 28.27011 2.121517
6.159817 28.6096 2.153263
7.39598 29.0056 2.193741
7.716873 28.94333 2.268603
3.546018 32.35659 -0.5545101
3.782011 31.38615 -0.550814
3.771098 32.25165 -0.5340372
3.789835 32.54579 -0.5013266
0.08519864 29.55989 -0.4982752
4.327734 32.92066 -0.483795
4.618071 32.95641 -0.4817328
4.576965 32.19648 -0.4672532
4.501077 30.92078 -0.3012303
-5.4628 30.52023 -0.6721864
-5.034463 29.04913 -0.6662254
-4.687451 29.04586 -0.6649886
-5.354878 29.87021 -0.6615558
-5.047352 29.44181 -0.6604531
-5.785888 31.04754 -0.6585633
-5.784123 30.60063 -0.6556659
-5.706956 29.8189 -0.6549878
-5.460606 30.15081 -0.6541933
-6.195711 31.80226 -0.6538259
-4.606495 28.59258 -0.6522849
-5.931162 31.38859 -0.6481073
-4.962067 31.34437 -0.6463983
-5.77441 31.7872 -0.6422085
-6.242802 32.18635 -0.6365162
-3.839757 30.5098 -0.6315508
-5.332061 31.54976 -0.6308595
-4.614895 31.03607 -0.6299776
-4.177959 30.67577 -0.62808
-2.509186 29.47439 -0.6240727
-3.383377 30.17204 -0.6106344
-3.394789 29.39777 -0.5887297
-0.1356201 29.42068 -0.5326491
-0.1952407 29.32389 -0.4695561
-11.79499 28.95958 -0.7085719
-10.92474 28.90542 -0.7023227
-11.10556 28.18871 -0.7001835
-11.06164 27.00972 -0.6987141
-11.4121 28.13075 -0.6976877
-10.97475 27.79967 -0.6968498
-11.40307 28.98429 -0.6965953
-11.02169 27.42511 -0.6959534
-9.791322 30.20821 -0.6953257
-11.05588 29.28566 -0.6952457
-12.17894 29.44207 -0.6943574
-10.1902 30.27287 -0.6942517
-11.02941 28.5598 -0.6941108
-10.51664 27.8566 -0.6924239
-10.66193 28.18712 -0.6916788
-7.037314 30.21524 -0.6903494
-11.31528 29.37274 -0.6896613
-10.24753 27.4915 -0.6896471
-10.22195 27.8234 -0.6889033
-10.63449 28.60627 -0.6888183
-11.80886 29.38775 -0.6884066
-8.533184 27.81403 -0.6882733
-11.77963 28.603 -0.6882268
-9.060721 29.12114 -0.688056
-11.43698 29.78642 -0.6877319
-12.14896 30.5991 -0.687134
-10.56855 29.9078 -0.6858919
-12.31697 30.92145 -0.6845747
-8.936028 27.87848 -0.6830533
-10.59518 31.41678 -0.6828218
-11.79388 29.81764 -0.6817796
-10.5624 27.03337 -0.68073
-9.378943 29.45722 -0.6785458
-11.78376 30.29012 -0.6776245
-7.063111 30.6554 -0.6767884
-10.53899 31.04731 -0.6756564
-8.225854 32.51861 -0.6736901
-10.94331 30.66339 -0.6735359
-10.53202 30.57054 -0.6732179
-6.987912 31.78458 -0.6726607
-9.428841 30.21344 -0.671882
-6.574135 31.40879 -0.6716334
-10.9971 30.18877 -0.6695341
-9.471766 29.80116 -0.6654455
-11.32885 30.94934 -0.6652197
-7.005597 32.18854 -0.663655
-6.595854 30.92694 -0.6632485
-7.442784 32.17488 -0.6626152
-7.366252 32.6576 -0.6616924
-12.63071 31.11061 -0.6602708
-7.01808 32.62952 -0.6589084
-6.554411 32.15065 -0.6585143
-10.64718 31.83482 -0.6570613
-9.749753 30.54679 -0.6555848
-7.838048 32.26926 -0.6537355
-6.221124 31.1033 -0.6532516
-6.63335 32.49283 -0.6447602
-6.623752 31.80701 -0.644001
-11.08794 31.38236 -0.6438809
-15.00051 25.04797 -0.7214615
-17.05095 27.41551 -0.721392
-12.97182 26.54495 -0.7213575
-15.83968 28.19156 -0.720732
-16.52811 25.1075 -0.7185901
-15.75239 24.99681 -0.7185289
-15.45274 25.04647 -0.7182699
-13.82844 26.26653 -0.7171685
-13.79097 28.10099 -0.7162856
-17.526 27.49825 -0.7158827
-13.82974 27.37021 -0.7158222
-13.43496 26.33267 -0.7156122
-12.95893 27.33166 -0.7152407
-12.58022 26.60224 -0.7149051
-16.16594 27.78604 -0.7145999
-15.80029 27.76207 -0.7145739
-14.17045 28.1305 -0.7144884
-15.44246 29.04801 -0.7135609
-13.79753 26.59399 -0.7134601
-14.58285 26.61764 -0.7134511
-14.22938 27.04969 -0.7132305
-15.3531 28.51198 -0.7127745
-13.46915 26.6512 -0.7123249
-14.31861 27.7822 -0.7119464
-12.19836 26.59441 -0.711917
-13.02222 28.12502 -0.7117304
-15.47151 26.21643 -0.7116611
-14.97501 29.08931 -0.7115464
-12.2338 26.22531 -0.7110478
-14.52497 25.85143 -0.7105966
-14.67836 25.50163 -0.7099762
-14.62329 26.97368 -0.7098842
-14.98548 28.66063 -0.7098722
-12.58144 27.05177 -0.7093211
-16.1595 28.88839 -0.7091494
-14.95379 28.18281 -0.7090732
-14.17263 27.34784 -0.7090551
-12.1711 27.40168 -0.7087657
-12.60206 27.3754 -0.7087254
-15.35919 26.51786 -0.7086041
-13.30437 28.61631 -0.7083078
-11.8473 27.41642 -0.7081537
-16.4998 27.42543 -0.7077889
-15.00336 26.63918 -0.7077688
-12.64397 29.06356 -0.7074254
-15.03664 27.90966 -0.7074168
-14.57462 27.30453 -0.7072915
-16.59385 28.59253 -0.7068486
-14.12362 25.78357 -0.7066773
-12.65199 27.78629 -0.7065579
-13.70513 28.55712 -0.7065009
-14.25746 25.43087 -0.7063815
-13.0752 28.55071 -0.705918
-16.63078 27.80035 -0.7058002
-13.05434 25.84129 -0.7057323
-11.8197 26.67114 -0.7049705
-14.16801 29.40467 -0.7047056
-13.80042 29.39032 -0.7046735
-13.44067 28.14944 -0.7045009
-11.84433 27.01062 -0.704378
-11.83434 27.8059 -0.7043599
-14.19358 28.58426 -0.7040122
-15.79873 28.56854 -0.70371
-14.23984 29.83753 -0.7036877
-15.75705 26.53182 -0.7034975
-16.19271 28.63029 -0.7034769
-16.99178 28.19364 -0.7034455
-14.121 26.57683 -0.7034261
-15.32788 25.39922 -0.7031662
-15.38156 27.80086 -0.7030096
-13.82558 28.94956 -0.7028555
-15.85444 28.9697 -0.7028534
-12.17786 27.78525 -0.7028052
-18.18743 27.76957 -0.7027137
-14.53668 28.60704 -0.7024502
-16.21239 28.23997 -0.7021447
-15.00136 27.00326 -0.7017718
-13.0144 27.85641 -0.7014414
-12.16469 27.00046 -0.7013946
-14.25569 26.21262 -0.7005256
-16.232 29.40319 -0.6998661
-14.56557 25.01094 -0.6997517
-17.32809 28.18535 -0.6995055
-13.02776 29.01709 -0.6994736
-12.59531 26.16491 -0.6992642
-11.77632 28.17027 -0.6992276
-14.61008 27.78628 -0.699197
-13.3746 25.78251 -0.6985756
-14.60687 28.20835 -0.6985131
-14.97215 27.37725 -0.6983904
-12.58809 29.44418 -0.6977592
-13.5035 29.77658 -0.697426
-17.02434 27.84695 -0.6972673
-12.25463 28.24404 -0.69696
-18.14931 28.20665 -0.6966509
-11.39029 27.38943 -0.6965855
-12.66761 28.57079 -0.6965451
-16.14652 24.21826 -0.6964642
-14.95773 25.78226 -0.6963978
-15.40749 29.83672 -0.6963129
-11.52027 27.75412 -0.6960425
-13.03611 29.32334 -0.6960406
-13.79765 29.76068 -0.6947205
-12.99168 30.57991 -0.6938816
-13.31571 30.61523 -0.693836
-16.59564 28.18168 -0.6936967
-11.43698 26.85469 -0.6933696
-12.55809 28.14935 -0.6932891
-16.99194 28.96414 -0.6926928
-15.76735 25.39398 -0.6920104
-15.72678 27.46207 -0.69201
-14.56529 29.85259 -0.6918761
-13.05486 27.02313 -0.6917782
-14.22431 28.90304 -0.6915833
-13.36818 29.42998 -0.6905202
-14.62991 30.1976 -0.6891663
-12.99713 30.18967 -0.688704
-14.18871 30.21938 -0.6885465
-15.2562 29.44159 -0.6885194
-12.21123 28.99558 -0.6884704
-15.84033 26.17577 -0.6880704
-16.58893 26.19298 -0.6873123
-13.79911 30.20181 -0.6870562
-13.39678 28.98033 -0.6866339
-16.51004 25.83564 -0.6864035
-15.42684 25.72777 -0.6859483
-12.24496 28.57944 -0.6857809
-14.58783 29.00133 -0.6856428
-14.96708 29.82428 -0.6840483
-14.63905 26.07432 -0.6829638
-16.64436 29.0253 -0.6829121
-13.78063 26.93022 -0.6827852
-13.02004 29.79973 -0.6785898
-12.67393 29.77387 -0.6773534
-15.06081 25.36645 -0.6736763
-13.40837 30.22707 -0.6690643
-14.57355 29.39135 -0.6636221
-17.43721 27.78747 -0.6580397
-15.89876 24.31242 -0.6573814
-18.07379 27.40806 -0.6544366
-16.16232 26.12778 -0.6538653
-17.76093 27.45671 -0.6515348
-15.86803 25.85649 -0.6492723
-16.21851 25.71849 -0.6426585
-17.71074 27.73516 -0.6388246
-16.05144 24.54578 -0.6332753
-17.31701 26.93052 -0.6230937
-19.75129 25.43315 -0.6121711
-16.48657 24.53039 -0.5649842
-17.86031 26.54697 0.207408
-17.86463 26.49688 0.2573096
-18.95552 27.0548 0.4369628
-19.04175 27.26477 0.4651294
-19.05281 27.08521 0.4722373
-19.40415 27.38223 0.5838503
-27.57221 18.64925 1.54104
-27.4899 18.70499 1.740314
-25.79394 18.49923 3.141211
-25.07081 17.3795 3.141402
-25.29375 17.75448 3.16655
-24.56002 16.60346 3.36487
-25.49557 18.08441 3.410494
-24.85251 17.05248 3.413624
-25.8019 18.52378 3.419556
-25.65923 18.32294 3.452288
-24.73758 16.95416 3.45501
-25.28869 17.76642 3.481012
-25.00501 17.37074 3.490547
-25.74418 14.60524 1.329575
-26.03606 15.08751 1.339785
-27.43381 17.79823 1.375697
-25.84693 14.89365 1.387056
-26.50206 15.70463 1.395331
-26.27073 15.39201 1.400735
-25.40812 14.14911 1.407808
-26.70728 16.21416 1.448925
-27.43607 17.84952 1.769531
-27.82067 18.52578 1.80826
-25.37141 16.65571 3.147549
-24.30004 16.20823 3.360182
-24.2468 16.10056 3.811548
-6.527582 -32.68858 -0.09806601
-6.580727 -32.68629 0.3254611
-6.562103 -32.28511 1.306345
-6.999037 -32.56008 1.313438
-7.362288 -32.7145 1.314112
-6.706107 -32.40876 1.351657
-0.6069893 -28.99566 -0.4723221
-1.056587 -29.28964 -0.4549959
-4.489076 -31.67604 -0.4502309
-1.812674 -29.77943 -0.4481176
-1.292463 -29.4432 -0.4469246
-5.390963 -33.00863 -0.4384425
-1.943954 -32.62893 -0.4315095
-1.585922 -29.62512 -0.4226251
-3.50307 -30.83273 -0.3522788
-4.219136 -31.30615 -0.3490463
-4.431504 -31.4479 -0.2979894
-5.467854 -32.07128 -0.2638807
6.173536 -32.57372 -0.4991935
6.159389 -32.19032 -0.454717
4.229792 -33.3247 -0.4432402
1.391512 -32.55148 -0.4426005
1.111446 -33.07288 -0.4398444
3.404378 -32.99381 -0.4324823
11.83195 -29.04759 -0.6287607
12.72407 -31.07688 -0.6156168
12.20365 -29.79991 -0.6154938
11.35888 -29.42245 -0.6103456
11.8442 -28.97408 -0.6087862
11.71915 -28.63669 -0.6079355
11.35072 -28.25349 -0.6011662
10.22834 -28.64833 -0.601121
11.70232 -28.58486 -0.5992748
11.34745 -28.99919 -0.5950437
10.59366 -28.47536 -0.5919163
11.81749 -29.4551 -0.5891008
10.55563 -28.18719 -0.5873562
10.98822 -28.60394 -0.5855881
10.97744 -28.19089 -0.5850689
11.38491 -28.51133 -0.5799295
10.91926 -27.82129 -0.5693607
10.49934 -27.47148 -0.5655015
10.66215 -27.78083 -0.5620114
10.87425 -27.78418 -0.560129
10.60946 -27.399 -0.5518138
9.408953 -31.44217 -0.5381104
7.047278 -32.32941 -0.5305067
10.95463 -27.04812 -0.5304418
10.67653 -26.98885 -0.528631
6.714773 -32.54348 -0.5207193
8.97179 -30.12811 -0.5206791
9.719213 -31.36333 -0.5198981
9.365897 -31.84234 -0.514035
8.975008 -32.19713 -0.513467
9.377469 -30.63693 -0.5072678
6.697786 -31.33945 -0.5071082
7.322716 -32.54089 -0.5025877
7.034482 -32.54348 -0.4965673
8.307831 -31.71854 -0.4899425
7.4681 -31.01138 -0.4793019
8.535444 -31.34559 -0.4731821
17.71279 -27.44897 -0.8524071
17.81471 -27.07553 -0.8488847
17.41865 -27.81767 -0.8433617
17.33935 -27.33629 -0.8429248
17.39767 -28.21536 -0.836301
17.43048 -26.97238 -0.8354119
17.04944 -26.52958 -0.8263345
17.07132 -27.37828 -0.8259524
16.99485 -26.25294 -0.8251718
16.96407 -27.02777 -0.8248313
17.37321 -26.15252 -0.8215474
17.0934 -27.86036 -0.8171325
16.6914 -26.60567 -0.8164688
17.52865 -28.60189 -0.8153052
16.5466 -26.27832 -0.8035293
16.56389 -25.88075 -0.8034618
16.58932 -26.14528 -0.7956738
16.23957 -25.75496 -0.7915378
16.68553 -24.98909 -0.7887053
16.23306 -25.37613 -0.7821051
17.02336 -27.79085 -0.7763708
15.83359 -25.00457 -0.7752532
16.58639 -28.96751 -0.7732976
17.44872 -28.54278 -0.7726753
16.08899 -24.9885 -0.7724383
16.10653 -29.40432 -0.7674558
14.5808 -30.05504 -0.7665647
16.5277 -26.50562 -0.7653522
16.54715 -27.05911 -0.7647044
17.29133 -28.28238 -0.763068
15.80849 -24.67279 -0.7622706
16.1317 -26.22818 -0.7589024
16.99566 -28.14411 -0.7578274
16.22852 -24.5759 -0.7557136
16.85103 -27.45022 -0.7547621
16.59954 -28.58416 -0.7532909
15.78036 -25.40532 -0.7520432
16.27329 -26.61705 -0.7513167
15.73053 -28.56187 -0.7513045
14.90625 -29.8192 -0.7491817
14.60181 -28.95076 -0.7481762
16.6776 -27.38511 -0.7455553
15.74543 -29.00358 -0.7442205
14.94393 -28.21736 -0.7440215
14.60003 -29.37643 -0.7438825
15.3927 -24.61996 -0.7433774
16.59432 -28.17662 -0.742435
16.60491 -27.78004 -0.7398761
16.27582 -28.10355 -0.7385464
15.43708 -28.12206 -0.7363139
12.1964 -27.38627 -0.7297778
15.42789 -27.7565 -0.7285717
12.59338 -27.79044 -0.7273493
15.44686 -28.56553 -0.7258767
16.14253 -27.85654 -0.725605
14.69762 -28.57508 -0.7245137
14.28813 -28.92795 -0.7230591
14.99935 -27.86301 -0.7227954
13.69786 -29.87163 -0.7211783
15.75832 -25.77816 -0.7207982
16.21684 -27.03293 -0.7206734
13.92581 -28.9958 -0.7200001
14.96863 -28.48673 -0.7180828
15.46091 -25.36021 -0.7172132
15.37668 -25.02724 -0.7164593
15.01451 -29.02791 -0.7156557
15.77616 -28.1654 -0.7142381
15.75621 -26.14011 -0.7101504
13.96454 -30.45945 -0.7097514
15.40837 -27.38921 -0.709354
15.93064 -27.36908 -0.7090054
14.9702 -27.38359 -0.7076266
13.00055 -27.80214 -0.7058184
12.52361 -26.95435 -0.704731
15.71789 -26.95547 -0.7001453
12.9297 -26.96144 -0.6997901
13.65054 -29.33391 -0.6989278
13.33052 -27.95001 -0.6987304
14.2995 -27.82336 -0.6979648
13.38518 -28.16906 -0.6933799
14.97851 -27.07652 -0.6931272
14.62329 -27.04498 -0.690771
13.8079 -30.18549 -0.6902643
14.64482 -26.69927 -0.6899177
12.28693 -27.061 -0.6898548
12.2331 -27.78819 -0.6848063
14.16799 -26.15124 -0.6833817
15.43008 -26.21158 -0.6831411
14.22814 -28.30915 -0.6825776
14.99221 -26.54425 -0.6815709
15.79887 -26.62057 -0.6801685
14.51185 -27.42854 -0.678722
14.20609 -26.58837 -0.677052
12.97036 -26.5821 -0.6757773
13.52095 -29.73572 -0.6736595
15.43239 -25.77158 -0.673288
15.34287 -26.60555 -0.6731277
14.21577 -25.79826 -0.6714658
12.58083 -26.617 -0.6668345
12.89354 -28.62474 -0.6629686
13.81986 -25.75839 -0.6627445
14.64221 -24.99942 -0.6610239
13.30564 -29.423 -0.6567768
13.40559 -25.75096 -0.6558161
12.97995 -26.18592 -0.6549138
14.17084 -25.39337 -0.6486374
12.58681 -26.14826 -0.6482427
12.66392 -28.636 -0.6457992
14.90412 -24.9908 -0.6389168
12.58589 -29.87368 -0.6325679
13.02347 -30.60936 -0.6322941
11.79597 -27.71227 -0.6298152
11.72088 -27.087 -0.6294045
12.92554 -30.25245 -0.6282475
12.16705 -29.32886 -0.6281025
13.05916 -29.03095 -0.6258375
12.54452 -29.32322 -0.6246597
12.68309 -30.24606 -0.6242264
12.99599 -30.88538 -0.6218219
12.13591 -29.03108 -0.6181751
12.29517 -28.65267 -0.616142
11.85672 -28.21313 -0.6156444
11.44523 -26.5896 -0.6148947
13.09532 -29.31648 -0.6113136
12.99411 -28.94304 -0.6111296
11.7357 -27.41739 -0.6095831
12.63503 -29.0732 -0.6050288
20.27402 -26.63483 -0.8723198
19.07545 -27.44666 -0.8682722
19.84361 -26.91289 -0.8679555
20.21734 -26.65443 -0.8671604
19.37679 -27.361 -0.859794
19.45653 -26.70869 -0.8527773
20.58383 -26.1669 -0.8510733
19.75512 -26.52046 -0.8509995
20.94698 -25.7748 -0.8487715
19.01922 -26.95148 -0.848318
19.73632 -26.19813 -0.8478188
18.64025 -27.01743 -0.8470291
21.43129 -25.80789 -0.8464543
18.99262 -26.60852 -0.8454013
18.99713 -26.09282 -0.8432956
18.20118 -26.62745 -0.842954
19.42197 -25.77892 -0.8429336
19.85316 -25.78245 -0.8421418
20.62723 -25.73981 -0.8411345
21.80126 -25.382 -0.8404114
20.62796 -25.32472 -0.8401217
20.11704 -26.189 -0.8399152
18.57733 -26.25706 -0.8386648
20.13317 -25.38615 -0.8386056
20.33441 -25.85454 -0.837423
21.43652 -25.0473 -0.8350805
20.97583 -25.34145 -0.8336667
22.30896 -25.00014 -0.832934
21.50484 -25.42528 -0.831078
20.26795 -24.99554 -0.8304529
21.80621 -25.01517 -0.8302282
19.75165 -25.41159 -0.829974
20.99335 -25.01308 -0.8291755
22.97749 -23.42966 -0.8290405
19.0265 -25.76682 -0.8289207
17.88661 -26.16507 -0.8280988
18.98867 -24.56833 -0.8278271
22.60188 -24.62227 -0.8274681
20.60224 -24.61139 -0.8273647
23.27691 -24.16727 -0.8267991
21.02878 -24.57163 -0.8265769
18.15614 -26.16999 -0.826454
18.66308 -25.44646 -0.826266
19.41859 -25.01236 -0.8255372
19.3597 -25.34277 -0.8251293
19.81669 -25.03092 -0.8245809
23.01557 -24.27927 -0.8240801
22.2416 -23.43594 -0.8235862
20.57141 -24.0848 -0.8233559
19.44464 -24.52627 -0.8233319
23.33881 -23.791 -0.8231875
21.38551 -24.5547 -0.8230414
22.99435 -23.78069 -0.8229793
22.58826 -23.42713 -0.8223845
17.35032 -25.87322 -0.8221143
18.95583 -25.29002 -0.8220388
21.01418 -24.25968 -0.8216124
18.6185 -25.93818 -0.8213333
22.20328 -23.77764 -0.8212589
18.21119 -25.88119 -0.8207278
20.19461 -24.58107 -0.8206146
21.40188 -23.75467 -0.8203433
18.57003 -25.02532 -0.8203415
21.81344 -23.81839 -0.8199806
19.01728 -24.98368 -0.8198841
21.00914 -23.80725 -0.8198218
22.66541 -23.7223 -0.8196682
21.38239 -24.15302 -0.8188244
22.16409 -24.59794 -0.8186225
18.64558 -24.64882 -0.8186191
22.18266 -24.19785 -0.8184377
17.75981 -25.43675 -0.8179508
21.89617 -24.71137 -0.8170943
22.56849 -24.16088 -0.8163841
20.28098 -23.82156 -0.8159218
20.61945 -23.76901 -0.8155996
21.31422 -23.53003 -0.8145489
22.57537 -22.58859 -0.8141919
21.73366 -23.43217 -0.813922
18.59556 -24.09352 -0.8138359
19.71916 -24.22416 -0.8132708
21.43164 -23.05551 -0.8112755
20.94763 -23.3913 -0.811083
22.69734 -22.97034 -0.8110765
21.42072 -22.55587 -0.8110546
19.80007 -23.76612 -0.8105475
21.92085 -22.54424 -0.8104622
18.1906 -24.2853 -0.8102724
19.02205 -23.8121 -0.8099067
23.4248 -23.48223 -0.8097407
19.32585 -23.85696 -0.8094509
21.78604 -22.96417 -0.8093768
20.59061 -23.37784 -0.8078359
20.64863 -22.50818 -0.807412
20.91846 -22.91887 -0.8066584
20.14497 -23.37544 -0.8058009
21.40108 -22.1875 -0.8038351
19.83843 -23.01187 -0.8035966
21.28827 -22.23347 -0.7938937
20.97245 -22.16508 -0.792396
20.23088 -22.19415 -0.7919137
19.32794 -23.0034 -0.7914967
20.95625 -22.57892 -0.7913116
19.79331 -22.71259 -0.7907485
20.14432 -23.02913 -0.7895076
21.05771 -21.72891 -0.789494
19.90184 -23.29391 -0.7885159
20.53978 -22.1671 -0.7883481
21.34441 -21.82777 -0.7880664
21.0149 -21.43517 -0.7866756
17.8119 -23.8079 -0.7850469
20.17889 -22.55126 -0.7849815
18.53836 -23.4005 -0.7843363
20.2084 -21.81852 -0.7830905
19.79969 -21.81224 -0.7826809
17.32659 -24.5794 -0.7813872
19.76227 -21.38792 -0.7813691
19.02389 -23.38877 -0.7804046
19.42137 -22.16232 -0.7800912
19.78139 -22.2113 -0.7790666
20.66175 -21.0009 -0.7789842
18.18918 -23.67657 -0.7782461
20.5974 -21.33273 -0.7781209
19.02985 -22.13196 -0.7780712
17.83667 -23.0698 -0.7775477
18.55463 -22.98625 -0.7771987
19.87058 -23.09468 -0.7771454
18.59517 -22.67064 -0.7760541
20.86676 -21.03648 -0.7759498
20.15577 -21.43442 -0.7756792
16.93826 -24.60343 -0.7756017
20.55804 -21.83501 -0.7746119
17.05026 -24.19317 -0.7745638
20.21838 -21.0569 -0.774169
18.1626 -22.97416 -0.7738007
19.42118 -22.56305 -0.7731298
19.02896 -23.02777 -0.7729024
18.98878 -21.84862 -0.7717717
17.47633 -23.39902 -0.770284
17.46243 -24.13317 -0.7691868
18.92325 -22.63027 -0.7675765
19.50958 -21.39197 -0.7675693
17.7951 -23.33808 -0.7659572
19.37055 -21.83257 -0.7658888
17.78865 -24.60254 -0.7640132
18.14088 -22.64244 -0.7631747
16.62325 -23.88845 -0.7617831
16.60501 -24.64841 -0.7615761
16.2298 -24.2587 -0.7555559
16.97975 -23.44104 -0.7476199
16.99568 -23.70533 -0.744001
16.55835 -24.27684 -0.7411273
20.32058 -22.67178 -0.7347903
24.56063 -22.53724 -0.8251494
24.59593 -21.79711 -0.8228543
23.49408 -22.65123 -0.8206633
24.19941 -22.88771 -0.8205729
24.613 -22.12908 -0.8189578
24.20028 -22.62231 -0.8178308
23.77996 -23.00998 -0.8147819
23.71697 -20.99747 -0.8145273
24.20932 -21.40346 -0.813396
24.19596 -22.24266 -0.8132351
24.09618 -21.02956 -0.8114735
23.79366 -22.56771 -0.8095276
24.2043 -21.80684 -0.8092108
23.64908 -20.58401 -0.8085328
22.25649 -22.1346 -0.8076753
23.35451 -20.58033 -0.8068035
22.23887 -21.76633 -0.7919049
22.94456 -20.63689 -0.7914971
22.65879 -21.80783 -0.7912935
23.46812 -19.76325 -0.7912645
21.75352 -20.90418 -0.79097
23.017 -21.35755 -0.7857531
22.34088 -20.17462 -0.785285
22.18999 -21.39097 -0.7826542
22.94601 -22.15362 -0.7815517
23.73275 -19.33124 -0.7809901
21.28202 -20.95199 -0.7808833
23.06026 -19.72853 -0.7803106
22.49304 -20.28804 -0.7801793
22.9925 -18.56281 -0.7785041
23.02409 -19.00592 -0.7781392
21.38861 -20.65828 -0.7771726
21.34737 -20.20938 -0.7710718
20.62691 -20.56856 -0.7699387
22.64076 -18.58849 -0.7677184
21.40524 -19.75378 -0.7651985
22.17606 -18.68201 -0.7587829
21.07676 -19.87479 -0.7512379
26.27348 -20.36468 -0.7391856
25.71952 -18.97202 -0.7123708
26.16346 -20.4523 -0.7118014
25.45417 -19.06084 -0.7028692
25.27034 -17.68942 -0.6989213
26.12957 -20.38828 -0.6970209
25.30396 -19.09207 -0.6733764
25.63211 -19.00068 -0.6543775
25.14209 -17.72183 -0.6284035
24.27319 -16.27281 -0.5992284
28.10122 -18.29702 -0.8330193
27.86028 -17.46785 -0.822885
26.54144 -15.42238 -0.8098204
29.30438 -13.31638 -0.6932142
24.57268 -16.20599 -0.6893367
26.6788 -14.68145 -0.6454116
26.56814 -14.96129 -0.6313865
24.5782 -16.15939 -0.611577
26.96489 -14.57385 -0.6020507
27.23348 -14.34417 -0.5958189
26.27549 -15.06959 -0.5728942
25.52885 -15.48695 -0.5653096
24.98725 -15.87533 -0.5317974
31.07807 -10.31502 -0.7428051
30.05083 -11.42616 -0.6968165
32.60527 -2.857644 -0.475235
31.01835 -3.726225 -0.3293025
7.307696 35.81105 0.1656902
8.694299 36.98435 0.1896343
8.272837 36.70951 0.1923195
7.457778 36.14776 0.1963615
7.903982 36.48035 0.2175012
2.688235 35.44872 -0.5457868
2.694993 34.18845 -0.5441335
3.027096 34.21139 -0.5417191
3.013561 35.44317 -0.5308618
2.34341 36.26693 -0.5301942
2.541472 35.85582 -0.5287513
2.913287 33.83702 -0.5284154
2.189019 37.38999 -0.5248163
2.217083 36.94824 -0.5226155
2.254595 36.59803 -0.521993
2.935726 33.7499 -0.5152145
-3.834563 34.61434 -0.5866861
-2.651325 36.85207 -0.5852533
-14.16901 34.22641 -0.6841548
-12.6283 33.84697 -0.6784151
-12.20585 33.78036 -0.6782645
-13.38795 32.60799 -0.6757725
-12.96112 31.492 -0.6755098
-13.89184 34.17245 -0.675346
-9.398042 33.1352 -0.6753198
-13.47651 34.1164 -0.6745023
-13.06046 33.69704 -0.6743276
-7.791907 33.4068 -0.6734864
-9.004089 33.0732 -0.6726163
-10.66511 32.19835 -0.670721
-12.55565 31.41541 -0.6695078
-10.95408 32.2262 -0.6690921
-9.810015 33.28541 -0.6685889
-13.01234 32.57462 -0.6675803
-11.31318 32.31647 -0.6668057
-8.313214 34.51779 -0.6654548
-10.61537 32.92293 -0.6650614
-11.40336 32.59267 -0.6648396
-10.18837 32.99085 -0.664638
-11.77426 32.70178 -0.6637848
-7.470655 33.00834 -0.662811
-12.2758 31.37364 -0.6619459
-12.66317 33.42898 -0.6619453
-12.59319 31.7468 -0.6616234
-10.98336 31.82768 -0.6616016
-8.551909 32.6498 -0.6611237
-13.36644 35.80312 -0.6606865
-7.709658 33.7696 -0.6598012
-10.1698 33.29385 -0.6597788
-13.35068 32.93401 -0.6595713
-9.012884 32.58853 -0.6592016
-9.309021 34.24331 -0.6578956
-10.22997 32.21995 -0.6573066
-10.20534 32.54227 -0.6566504
-7.792239 34.14944 -0.6558168
-8.583815 34.57455 -0.6552203
-13.04853 35.46022 -0.653378
-10.18872 34.59968 -0.6525391
-7.356945 33.35922 -0.6522592
-11.40619 32.94409 -0.651713
-13.46923 33.28819 -0.6514457
-12.67562 32.64725 -0.6512955
-11.75667 35.38753 -0.6498368
-8.61539 34.98428 -0.6490462
-13.4247 33.84468 -0.6486541
-7.89588 34.51486 -0.6476277
-12.21069 32.6515 -0.647597
-12.21142 31.81241 -0.6475569
-10.62534 34.67089 -0.647016
-7.455723 34.24531 -0.6454876
-7.057504 33.02416 -0.644621
-14.5721 35.3375 -0.6438278
-11.05802 32.66879 -0.6436495
-12.23004 32.22308 -0.64016
-10.2324 35.85645 -0.6388598
-8.640459 33.12034 -0.6372563
-12.10391 32.96992 -0.637125
-12.56707 34.12661 -0.6295866
-8.139113 34.94855 -0.6228771
-11.84754 34.22028 -0.6200432
-11.90111 33.44403 -0.6181622
-8.524188 35.43727 -0.6180439
-11.82058 33.00801 -0.6165036
-9.029945 36.24422 -0.6125707
-10.19195 35.38207 -0.6114026
-11.79126 34.91641 -0.6103177
-7.05744 33.83521 -0.607555
-11.83976 33.82088 -0.5981712
-12.54994 35.38861 -0.5965986
-8.624464 35.8259 -0.5902303
-11.04488 36.61378 -0.5883416
-8.844849 35.84389 -0.5871792
-12.71045 35.82866 -0.555503
-18.6163 30.63829 -0.7167301
-18.59759 29.36575 -0.713029
-19.41903 30.46477 -0.7106563
-18.58625 31.08751 -0.7074269
-16.59569 30.1384 -0.7055601
-17.06878 30.57043 -0.704631
-16.1729 30.67165 -0.70448
-17.03697 32.17895 -0.703152
-15.82572 30.17972 -0.7026822
-14.9982 30.08167 -0.7017559
-19.43496 30.23185 -0.701166
-17.43862 31.86182 -0.7003982
-16.23123 29.81919 -0.6983447
-20.16256 30.67538 -0.6981799
-15.81824 30.9383 -0.698085
-14.96412 30.65144 -0.6975223
-19.40067 32.15645 -0.6973617
-17.42151 29.76973 -0.6972998
-16.65044 29.39571 -0.697253
-15.86572 29.76533 -0.6965995
-19.01978 29.34847 -0.6961508
-19.36552 29.09747 -0.6961246
-18.25803 31.42697 -0.6960694
-14.20741 30.57105 -0.6950634
-16.23189 31.54012 -0.693292
-18.09635 32.98495 -0.6926906
-17.79444 33.83712 -0.6926151
-17.0778 29.38354 -0.6922542
-17.82578 31.03134 -0.692234
-16.23168 30.25209 -0.6920711
-19.09587 31.83228 -0.691753
-17.00927 31.42661 -0.6916156
-16.60286 32.15166 -0.6913987
-18.2012 31.07269 -0.690835
-14.56737 32.64847 -0.690639
-16.96345 32.99432 -0.690571
-15.76822 34.12771 -0.6905173
-17.04529 29.78575 -0.6902664
-13.78731 30.65587 -0.6901273
-17.36458 33.84441 -0.6900051
-16.48261 31.00749 -0.6890963
-18.50273 31.35504 -0.6889952
-17.38025 32.98928 -0.6888927
-17.39453 29.02913 -0.6888882
-15.39238 31.00673 -0.6886468
-18.6597 32.64554 -0.6877388
-17.38282 29.44567 -0.6874908
-15.29914 30.67251 -0.6874585
-16.52815 34.13691 -0.6869874
-14.61169 30.63807 -0.6867413
-17.01438 33.87154 -0.6866669
-18.11722 30.61637 -0.6863029
-19.7719 30.30505 -0.6860791
-16.24075 34.55918 -0.685996
-18.60086 32.21433 -0.6859934
-15.04966 31.77009 -0.6857973
-16.59766 32.54488 -0.68569
-18.2171 29.78123 -0.6855711
-17.35677 31.34872 -0.6854653
-15.40859 30.221 -0.6853691
-15.81526 32.58708 -0.6853288
-18.242 29.47085 -0.6850658
-15.43574 34.54252 -0.6849384
-16.61221 29.81636 -0.684638
-14.52458 30.9785 -0.683798
-15.78602 30.5958 -0.683732
-18.18003 31.75812 -0.6835798
-15.02796 32.54396 -0.683531
-16.20367 32.22352 -0.6833126
-14.93573 31.04338 -0.6822466
-15.27718 32.20637 -0.6822209
-15.43193 33.11153 -0.6815386
-13.40131 31.50972 -0.6814401
-15.79125 32.17895 -0.6813439
-15.81273 33.77973 -0.6805432
-15.83713 31.78338 -0.6800989
-14.25332 31.49491 -0.6798792
-13.84946 30.96891 -0.6797431
-17.78085 31.74632 -0.6797249
-14.23076 31.8229 -0.6792532
-16.62236 31.45316 -0.6792383
-20.95835 31.7148 -0.6791045
-15.82336 34.56558 -0.6785383
-15.39 32.57941 -0.6782026
-16.9904 31.81543 -0.6781017
-16.21679 31.78308 -0.6777162
-14.15149 31.02465 -0.6775174
-16.22013 32.97663 -0.6772917
-20.58564 31.35101 -0.6770566
-16.58775 33.36871 -0.6766635
-15.04503 32.24561 -0.6766483
-17.03201 34.19372 -0.6764312
-13.76117 31.41328 -0.6763164
-20.62657 31.84938 -0.6761691
-18.94334 32.1661 -0.6753106
-17.77728 30.61209 -0.6752251
-18.5756 29.79092 -0.6751764
-17.80937 30.21411 -0.6751184
-17.80171 32.59171 -0.6750302
-15.83324 31.48602 -0.6748434
-18.15466 30.12747 -0.6745991
-15.02227 31.41648 -0.6741742
-15.40133 34.10559 -0.6739104
-17.68713 33.03641 -0.6737419
-17.9192 31.42023 -0.6735986
-15.4443 34.92628 -0.6733553
-16.16418 33.78891 -0.6732779
-16.16746 32.57491 -0.6732629
-16.67377 31.79828 -0.6730412
-14.1991 33.01081 -0.6730036
-14.69128 34.59536 -0.6729235
-17.45776 30.18721 -0.6727778
-16.17725 34.12086 -0.6724731
-16.97331 30.96288 -0.6717668
-18.58302 32.97617 -0.6716343
-14.62723 32.16077 -0.6713663
-16.65887 30.62668 -0.6711299
-17.44485 32.67654 -0.6710809
-14.5711 31.30353 -0.6709161
-14.56235 31.80647 -0.6701537
-14.24271 32.6256 -0.6700637
-15.00548 34.56758 -0.6700333
-17.44008 30.52765 -0.6698841
-15.37112 31.75673 -0.6693871
-18.24893 33.38528 -0.6692303
-16.235 30.98562 -0.6691367
-16.57247 32.98443 -0.6679627
-18.14088 32.5669 -0.667717
-17.40868 33.41671 -0.6676407
-19.75085 31.79929 -0.6672198
-13.77459 31.79618 -0.6668294
-20.95198 31.36186 -0.6666966
-18.17487 32.23101 -0.6666204
-17.38496 30.93831 -0.6663984
-18.59263 30.16485 -0.6663802
-15.04859 34.20116 -0.6662794
-16.99827 32.64532 -0.6660342
-19.06504 32.61811 -0.6646242
-17.35997 32.18722 -0.6645674
-15.45751 33.41952 -0.6642774
-19.42659 31.74373 -0.6638758
-18.70019 31.80451 -0.6635401
-14.16415 33.88104 -0.6624726
-14.19602 32.23334 -0.6621864
-15.39773 33.8302 -0.6619311
-16.55749 33.83362 -0.6618364
-14.97342 33.76488 -0.66181
-15.83994 32.97504 -0.6616362
-14.94862 35.026 -0.660804
-15.76925 33.33144 -0.6598397
-14.61359 34.23662 -0.6591731
-19.41213 32.56309 -0.6591407
-15.40479 31.45417 -0.6577017
-16.91572 30.22649 -0.6571628
-20.22202 32.22215 -0.6551849
-13.74188 32.24126 -0.6531914
-16.29102 33.39924 -0.6510261
-13.75066 32.89186 -0.6502973
-20.09898 31.8124 -0.6459585
-19.7513 32.57685 -0.6443412
-17.87941 29.77888 -0.6402853
-15.00117 33.40007 -0.6387835
-19.33658 29.7795 -0.6376036
-19.00335 30.53773 -0.6339829
-14.65127 35.08226 -0.6263396
-19.53178 29.4535 -0.6103507
-14.63359 32.98713 -0.6032634
-21.0892 29.05774 -0.7112875
-22.18684 27.73563 -0.7054639
-21.68766 28.95664 -0.7020195
-20.90782 29.37709 -0.6991786
-21.01255 28.62553 -0.698294
-20.23406 29.42198 -0.6963819
-20.93052 28.31264 -0.6938751
-20.56507 29.66004 -0.6927237
-24.26148 28.94549 -0.6906317
-20.29184 28.96337 -0.6866048
-20.59339 29.3707 -0.6839536
-21.43787 31.42204 -0.6827277
-24.30205 28.56961 -0.6757028
-20.62686 28.93715 -0.6751119
-23.77826 28.59228 -0.6679347
-21.3674 28.50485 -0.6383414
-20.62784 30.55969 -0.6314179
-21.53516 28.3397 -0.6264418
-21.77333 28.27523 -0.6193681
-23.3556 30.26019 -0.6149206
-22.53433 29.69525 -0.589964
-23.07649 30.25391 -0.5844171
-23.06071 30.31221 -0.5805809
-31.07035 21.35678 0.853406
-30.23061 20.98515 0.8979082
-26.21397 24.65522 1.01839
-26.62333 26.60021 1.125278
-28.09671 18.73726 3.455476
-28.13484 18.69151 3.814674
-28.07685 18.69347 4.132279
-7.082195 -33.11044 -0.4426775
-7.50141 -33.37426 -0.1828035
-8.935582 -34.22962 -0.1270519
-11.67483 -35.95847 0.2315123
-7.030616 -32.97718 0.3061211
-7.25965 -33.14156 0.439412
-6.956465 -32.94762 0.5130963
-12.58352 -36.10265 1.170985
-8.236379 -33.36135 1.311404
-7.726185 -32.94441 1.375399
-12.28494 -35.77808 1.853909
-12.55572 -35.90172 1.875433
-12.54297 -35.93639 2.032054
-12.20897 -35.73736 2.033393
-10.82508 -34.99955 2.050918
-9.739013 -34.34187 2.073815
-10.1739 -34.58023 2.07691
-10.48969 -34.76448 2.083019
-10.66119 -34.88503 2.099257
-9.042081 -33.83006 2.144273
-8.566967 -33.55593 2.150717
-8.216608 -33.35897 2.165268
-8.770004 -33.66257 2.172701
-7.828472 -32.96018 2.188544
-7.45988 -32.81761 2.196662
-8.075725 -33.15665 2.205267
-9.401663 -33.86197 2.626563
-12.63703 -35.90123 2.911788
-12.32485 -35.73936 2.95605
-9.335435 -33.88183 2.980247
-9.453533 -33.92042 2.983418
-8.309706 -33.30499 3.027403
-7.685846 -32.72741 3.032889
-7.887147 -32.94691 3.033061
-8.169 -33.13937 3.033399
-4.990957 -33.32802 -0.4540933
-6.134101 -37.39765 0.171281
-6.443338 -37.08087 0.2852282
-5.85246 -37.40481 0.3067123
6.184487 -33.09809 -0.5260357
6.280715 -34.59378 -0.5081996
6.961617 -35.4004 -0.5066626
6.480505 -34.66124 -0.5061542
6.210701 -35.46323 -0.5037271
6.480236 -34.9454 -0.5027133
5.876344 -35.81575 -0.5006642
6.335443 -34.97301 -0.4956681
5.738664 -33.87309 -0.4899422
6.479596 -34.29214 -0.4853801
6.140399 -33.94527 -0.483183
6.620391 -35.69193 -0.4810312
6.22734 -34.06446 -0.4712581
5.32842 -33.36094 -0.4646775
0.6492772 -33.77629 -0.4641228
3.007883 -33.68272 -0.457058
4.647794 -33.44581 -0.4497755
8.991704 -36.63456 -0.6534261
8.877826 -36.29127 -0.6493914
8.161204 -35.72599 -0.638374
8.141956 -35.41002 -0.6379885
8.609409 -35.84051 -0.6377609
9.074923 -35.84798 -0.6279362
8.600218 -36.21273 -0.6216837
8.946587 -36.99983 -0.6074088
7.769842 -34.23743 -0.6016113
8.285445 -36.19897 -0.6007402
7.746822 -34.50738 -0.6003538
8.644518 -36.5991 -0.5920656
7.728065 -35.75266 -0.5861292
7.815233 -35.33468 -0.5854635
7.780314 -37.0009 -0.5740054
8.151503 -36.58234 -0.5736769
7.761796 -36.66278 -0.565039
7.376071 -36.59238 -0.562507
9.710871 -32.7628 -0.5593051
7.715425 -34.91015 -0.5571321
9.101262 -32.57409 -0.5567986
8.176366 -36.95624 -0.5562239
8.1042 -33.38943 -0.5532317
7.514201 -34.67396 -0.5427644
7.391668 -35.35498 -0.5330477
10.84484 -34.32311 -0.5325452
7.424169 -37.03627 -0.5262147
7.40522 -35.87391 -0.5261442
7.350918 -33.02886 -0.5260214
7.839873 -33.75059 -0.5217016
10.60413 -34.18613 -0.5052091
10.58592 -34.19265 -0.5028892
10.32668 -34.47609 -0.49576
7.360096 -35.15792 -0.4916183
10.56804 -33.97671 -0.4776055
20.18596 -31.75578 -0.9589682
20.209 -32.16024 -0.9571404
20.60266 -32.16765 -0.9536067
20.55542 -31.38046 -0.9522745
19.83196 -31.72395 -0.9507288
19.77921 -31.36683 -0.9501176
20.4948 -31.0486 -0.9492128
20.1925 -31.43573 -0.9451069
19.76334 -32.23023 -0.9407141
19.76308 -30.98866 -0.9397517
20.22567 -30.53489 -0.9361197
19.81104 -30.59298 -0.9352983
20.15132 -30.25246 -0.9322757
20.1764 -30.99995 -0.9310377
19.42866 -31.01147 -0.9309369
19.72253 -32.60606 -0.9272178
19.3925 -30.67717 -0.9268702
19.3578 -30.21485 -0.9177986
19.80617 -30.23483 -0.9116557
19.37699 -29.79983 -0.9060414
18.94845 -29.86948 -0.9058968
18.69094 -29.82147 -0.9048675
19.01167 -30.18584 -0.9043037
18.95182 -29.48298 -0.8984488
18.60416 -29.39964 -0.8965732
19.3193 -31.41824 -0.8936085
19.40857 -31.78417 -0.892403
19.38816 -29.36987 -0.8913749
18.96633 -29.00422 -0.8897111
18.58702 -28.96468 -0.8880097
19.80691 -29.7662 -0.8874773
19.45277 -32.17609 -0.8869673
18.2139 -28.98372 -0.8833479
19.06704 -28.64742 -0.8828467
18.92535 -30.71557 -0.8826811
18.26819 -28.64528 -0.8823729
18.61217 -28.54418 -0.8811953
18.59098 -28.29929 -0.8779256
19.04885 -31.00109 -0.8753088
18.1808 -29.37928 -0.8722624
17.01102 -33.78494 -0.868125
17.4017 -33.73005 -0.8676869
19.48774 -32.19161 -0.8622532
18.59166 -30.15121 -0.8596434
18.55785 -33.04078 -0.8555656
17.73262 -28.62884 -0.8551793
17.00549 -33.43645 -0.854146
17.40951 -33.42058 -0.8535355
16.62929 -33.0515 -0.8490652
18.67589 -30.57026 -0.8486199
18.26958 -29.76824 -0.8452469
17.82551 -29.02125 -0.8451892
17.85825 -32.62214 -0.8451139
18.17407 -32.28127 -0.8411952
18.98314 -33.00433 -0.8398194
17.24049 -32.96843 -0.8380496
18.61422 -33.40456 -0.8379214
19.03868 -32.58319 -0.8377179
19.0371 -31.39243 -0.8363019
16.9173 -33.00528 -0.83325
17.31514 -32.64446 -0.8292992
17.97378 -29.31142 -0.8290806
16.95532 -32.62931 -0.8277111
19.49952 -32.62819 -0.8276408
18.64149 -32.29145 -0.8249545
18.20045 -30.10734 -0.8239456
17.39248 -31.77159 -0.8235373
19.00978 -31.74938 -0.8234614
19.05198 -32.27652 -0.8214163
14.83455 -35.00009 -0.8208051
17.39027 -31.39094 -0.8189268
16.64279 -32.59609 -0.8175843
17.80135 -30.54675 -0.8175694
18.11377 -30.9791 -0.8162041
17.50031 -30.21121 -0.8152151
16.23257 -31.81776 -0.8150982
17.79888 -31.68048 -0.8142651
17.5051 -31.02944 -0.8111911
18.17114 -31.44881 -0.8105769
14.89116 -34.61856 -0.8102895
18.64171 -31.3749 -0.8101162
18.55795 -30.97102 -0.8100672
17.85002 -31.42245 -0.8076859
17.72998 -30.91471 -0.805739
18.14379 -30.12388 -0.7929899
17.34416 -30.69408 -0.7916826
18.25507 -30.50574 -0.7889116
17.82639 -30.11421 -0.7873006
16.99962 -30.57092 -0.786608
16.54501 -29.7847 -0.7827843
16.47748 -29.44986 -0.7801641
15.39561 -31.40126 -0.7768523
16.06142 -29.76619 -0.7735531
17.46397 -29.33435 -0.772847
16.15 -31.04724 -0.7728135
15.77784 -30.99473 -0.7723183
15.80694 -31.31151 -0.7717414
15.40932 -31.04867 -0.7642522
16.99888 -29.11308 -0.7588917
17.76311 -29.8425 -0.755512
17.38393 -28.9688 -0.7429258
14.50466 -31.10826 -0.7363402
14.98282 -34.22155 -0.7310323
14.85364 -34.91742 -0.7273697
15.05115 -33.79869 -0.7257866
15.14392 -33.42486 -0.7189182
15.19009 -33.16291 -0.7169474
14.90263 -34.59137 -0.7142782
14.57127 -31.39739 -0.7101722
15.24351 -32.66074 -0.7073343
14.2923 -31.00046 -0.7035619
15.2362 -32.98167 -0.7023656
14.53507 -31.35655 -0.7002978
15.18294 -32.43176 -0.6985903
14.11064 -30.65093 -0.6969804
15.08209 -32.17831 -0.6849964
14.81097 -35.24296 -0.6773419
14.8871 -31.86563 -0.6758069
14.7631 -31.6842 -0.6740639
22.18742 -30.92751 -0.9563224
21.34134 -31.05739 -0.9484994
22.95156 -30.56982 -0.9481583
21.42685 -30.62955 -0.9479775
20.96998 -31.35114 -0.9472324
22.6153 -30.53274 -0.9467707
20.62813 -30.63014 -0.9446195
22.1901 -30.25054 -0.9423387
22.15731 -30.60549 -0.9423162
22.9662 -30.17186 -0.9417207
22.63041 -30.19425 -0.9393646
21.46499 -30.22092 -0.9391282
21.80637 -30.15001 -0.9359658
20.98259 -30.11855 -0.9359558
21.85348 -29.81989 -0.9337641
21.40917 -29.86717 -0.9319181
21.02441 -29.83817 -0.9314059
20.97019 -29.47159 -0.9307201
20.59587 -30.27203 -0.9305918
21.81926 -29.08903 -0.930132
23.82002 -29.80551 -0.9297072
23.47771 -29.73975 -0.9264101
22.18154 -29.78314 -0.9263703
21.77833 -30.59483 -0.9256485
21.75891 -29.42698 -0.925625
22.20087 -29.42104 -0.9254106
22.99823 -29.80629 -0.9249816
23.36114 -29.41001 -0.9247058
22.61213 -29.79906 -0.9246534
22.55934 -29.35553 -0.9245601
22.61497 -28.96217 -0.9228171
23.83366 -29.44706 -0.921697
