# .PCD v0.7 - Point Cloud Data file format
VERSION 0.7
FIELDS x y z
SIZE 4 4 4
TYPE F F F
COUNT 1 1 1
WIDTH 1697
HEIGHT 1
VIEWPOINT 0 0 0 1 0 0 0
POINTS 1697
DATA ascii
-78.21744 35.25585 0.226363
-66.64085 44.3164 0.2270482
-66.59525 42.91627 0.2307615
-72.27298 40.90501 0.2397181
-69.82315 38.55918 0.2422876
-73.16656 38.90992 0.255623
-71.44472 41.36556 0.2592099
-68.34111 43.08638 0.2797204
-65.86306 43.15147 0.2886165
-66.94961 44.11527 0.2939336
-71.68376 41.36351 0.3038985
-67.36776 42.29455 0.3063538
-70.57453 40.14785 0.3182244
-67.81608 43.51687 0.3186406
-72.62234 40.61617 0.3211809
-67.30592 43.84782 0.3232287
-73.55648 39.9604 0.3343986
-73.06961 40.31003 0.3344392
-71.47364 41.11729 0.3406378
-68.33315 43.09311 0.3560117
-65.7188 43.33729 0.3586715
-72.3612 40.76344 0.3630016
-67.83353 42.12495 0.3708118
-73.14314 40.25507 0.3805183
-71.69656 41.31976 0.418315
-71.65266 41.33356 0.4238267
-75.23591 38.84573 0.4256341
-75.09583 38.85995 0.4384609
-71.51831 41.16609 0.441162
-68.10546 43.24235 0.4465954
-66.57804 44.23704 0.454053
-66.87808 44.05625 0.4591789
-71.45921 41.03521 0.4602425
-72.07675 40.86271 0.4735081
-68.12138 42.63467 0.4753501
-78.74762 36.15464 0.4755971
-75.06831 38.85523 0.478658
-73.31232 40.06672 0.480705
-67.32513 43.75736 0.483618
-74.99619 38.67712 0.4845812
-66.58916 44.21532 0.4858758
-71.26602 40.54523 0.4883143
-73.41101 39.84026 0.4893196
-67.80341 42.27675 0.5000204
-71.77809 41.00246 0.5096417
-78.83678 36.31065 0.5103033
-78.28882 35.37915 0.5156126
-73.01444 39.02612 0.5205
-66.25785 43.82959 0.524129
-67.77499 42.26077 0.524713
-67.80413 43.38931 0.5251809
-68.16495 43.03474 0.5253263
-73.41486 39.93755 0.5275607
-73.28919 39.42813 0.5281553
-73.00983 40.24407 0.5345682
-67.33092 43.7122 0.5346105
-68.17286 43.07728 0.5348548
-78.0352 37.22866 0.5354005
-78.89924 36.62751 0.5390881
-71.72807 41.02872 0.5409393
-77.79609 37.37002 0.5437205
-67.03336 43.89512 0.5438893
-75.76575 38.56452 0.546114
-69.85927 38.59064 0.548118
-78.58266 36.91061 0.5481663
-76.97433 37.84528 0.548691
-72.99486 40.24034 0.5497712
-76.94592 33.97295 0.5500218
-72.53706 40.54357 0.5512374
-76.23693 38.2705 0.5512851
-66.99679 43.89483 0.5529943
-77.29863 37.65971 0.5534268
-72.96593 39.04078 0.5539749
-77.49316 37.53656 0.5559356
-76.93005 34.10047 0.5568663
-71.0885 39.95011 0.5577181
-70.62505 29.74194 0.5585634
-78.55146 35.80326 0.5591253
-70.05529 38.56078 0.5604834
-76.55241 38.09323 0.5673828
-73.1237 39.31937 0.5684503
-66.16565 43.22811 0.5693325
-71.84822 37.65527 0.5705371
-67.79543 43.3782 0.5705435
-76.75974 37.95551 0.5780845
-78.2512 37.09212 0.5795797
-72.22365 40.71788 0.5846064
-67.83227 42.56674 0.5851462
-70.03259 38.55526 0.5854185
-76.86706 34.19654 0.5880836
-75.45583 38.65416 0.590342
-76.22713 38.27717 0.5912798
-70.74158 29.53024 0.5913636
-72.29835 40.67196 0.5916575
-69.80822 30.18535 0.5918723
-78.23685 35.30778 0.5932481
-69.78008 38.54317 0.6021219
-78.91133 36.68288 0.6110902
-72.50671 40.52087 0.6112952
-69.33556 30.47136 0.6116863
-67.51394 43.51816 0.6251934
-70.17335 30.14328 0.6295318
-75.45066 38.67828 0.6345975
-72.73016 40.35433 0.6372856
-78.54005 36.93989 0.6395866
-70.56829 29.82444 0.6424829
-75.79865 38.81654 0.646366
-67.46342 43.47955 0.6506418
-69.02072 30.65455 0.6638165
-75.76044 38.7138 0.6657617
-72.75991 40.32174 0.6688648
-69.48325 30.35356 0.670317
-70.19801 30.13848 0.6748882
-78.75579 36.78817 0.675809
-75.05963 38.18492 0.6840835
-76.65215 38.03675 0.6931155
-75.2732 38.25406 0.7114448
-74.95346 37.86468 0.7188929
-75.17062 37.92798 0.8728485
-78.30054 37.03842 0.8780513
-78.57455 35.89265 0.8871586
-78.26174 35.42275 0.902746
-78.35645 35.61831 0.9095133
-77.25776 37.62476 0.9216806
-75.7278 38.46937 0.9226454
-75.7285 38.47843 0.9328156
-76.91042 34.13264 0.9416708
-76.5194 38.04756 0.9468744
-78.83266 36.58907 0.9485505
-70.01878 38.56389 0.9513469
-77.76353 37.31522 0.9517543
-75.05767 37.37931 0.9613675
-78.18994 37.06507 0.962145
-69.85713 38.60303 0.9638304
-76.87824 34.10741 0.9645057
-75.44878 38.1333 0.9660458
-78.85693 36.65997 0.9669812
-78.19931 35.35123 0.9677644
-76.97345 37.76896 0.9691904
-76.21858 38.18677 0.9707856
-78.5301 36.86721 0.9773473
-70.57387 29.78739 0.9793842
-70.03007 38.54407 0.9830479
-78.70585 36.22786 0.9864223
-69.77024 38.55675 0.9882123
-73.26314 36.43874 0.9900613
-70.76465 29.5323 0.9906108
-77.4081 37.51366 0.9974863
-76.77216 34.29726 1.013906
-76.49597 38.0442 1.019156
-69.02974 30.65662 1.021765
-69.79126 30.17934 1.027719
-71.81689 37.68398 1.02849
-75.38739 37.77755 1.039729
-76.70178 37.89766 1.045417
-71.80042 37.64823 1.051064
-78.70675 36.69673 1.05334
-70.60488 29.8585 1.053506
-69.32683 30.46329 1.059327
-77.95062 37.16702 1.062002
-78.54404 36.85896 1.064173
-70.17062 30.16928 1.065914
-78.74792 36.66082 1.073123
-75.8582 38.27795 1.091124
-70.18356 30.13686 1.093736
-75.88885 38.27222 1.110162
-69.52048 30.34051 1.110201
-75.3436 37.41611 1.129446
-71.77924 37.55833 1.139653
-75.28414 37.32436 1.148023
-78.21548 35.50978 1.245274
-78.48099 36.82258 1.258385
-76.95654 37.71656 1.262142
-77.69332 37.2703 1.269662
-76.18703 38.12831 1.2702
-76.92857 37.6937 1.276852
-78.4635 35.89609 1.278423
-78.65568 36.64169 1.278573
-76.60562 37.88815 1.286611
-77.38717 37.4239 1.294827
-78.20058 36.95333 1.301902
-77.88307 37.14135 1.306815
-78.22374 35.52628 1.307177
-78.6179 36.19474 1.310008
-75.80745 37.32532 1.319775
-70.44633 30.01146 1.327444
-76.06081 37.82549 1.327991
-77.13949 37.56993 1.33307
-69.82689 30.17749 1.337062
-78.70876 36.56056 1.339039
-77.4268 37.40775 1.347477
-69.88078 38.61486 1.35743
-70.18884 30.10801 1.358179
-76.83817 34.12269 1.368251
-73.15511 36.4515 1.381456
-78.28185 35.70877 1.383393
-78.30267 35.75338 1.383407
-70.65161 29.87473 1.389416
-70.02318 38.54427 1.389849
-76.73244 34.32352 1.402144
-71.7657 37.65203 1.405196
-68.89629 30.8974 1.409494
-73.26694 36.45607 1.41252
-70.75705 29.52717 1.413223
-69.31901 30.47426 1.424863
-69.80302 38.56953 1.425099
-71.75082 37.65652 1.426181
-73.1739 36.42826 1.442397
-69.03912 30.64345 1.446805
-70.5846 29.8294 1.448756
-71.75434 37.56297 1.45397
-76.85057 34.22452 1.467203
-70.19935 30.14307 1.480349
-69.50049 30.33997 1.488385
-76.66017 34.26648 1.520166
-69.80531 30.18117 1.712698
-69.00214 30.67808 1.728233
-69.32326 30.46855 1.730624
-70.43391 30.02222 1.738357
-70.20596 30.12402 1.741202
-71.80235 37.66825 1.759393
-69.84458 38.58846 1.774388
-76.68126 34.24322 1.778717
-73.2747 36.46593 1.779777
-71.76768 37.6511 1.783291
-76.83676 34.28432 1.785199
-73.1121 36.36941 1.785844
-73.15392 36.4539 1.786847
-69.8639 38.63671 1.788175
-71.70988 37.56739 1.789827
-73.33544 36.45984 1.803092
-76.6825 34.27064 1.821913
-70.56409 29.90473 1.836708
-70.6392 29.89053 1.841881
-69.30064 30.48371 2.131186
-68.8943 30.91506 2.132684
-70.11302 30.21086 2.139403
-69.81728 30.18298 2.164314
-71.75339 37.63778 2.172011
-69.5075 30.34068 2.178796
-70.19271 30.12892 2.18021
-69.05525 30.62436 2.180231
-70.56165 29.83922 2.184814
-69.93597 38.66676 2.187338
-69.80443 38.63946 2.193357
-71.7941 37.66812 2.193448
-70.44505 29.48374 2.199129
-73.10332 36.37902 2.200145
-73.14988 36.46105 2.201621
-70.65134 29.88295 2.209069
-70.43639 30.03013 2.222025
-76.66066 34.27743 2.222853
-73.29044 36.50415 2.238312
-76.67271 34.23089 2.238769
-73.23512 36.51362 2.24235
-71.711 37.57631 2.242803
-63.70977 42.56195 2.488666
-63.40319 42.18044 2.49522
-64.25344 41.91014 2.495782
-63.75156 42.31173 2.526274
-73.15233 36.32155 2.559447
-70.12639 30.22786 2.579769
-70.5796 29.87183 2.587286
-71.75385 37.63562 2.588105
-69.79314 38.60641 2.594836
-70.63221 29.89084 2.606619
-64.25196 42.12185 2.607108
-68.87825 30.92472 2.607402
-73.13276 36.4829 2.607978
-69.80974 38.65921 2.610962
-65.39363 42.63659 2.615055
-76.65325 34.30294 2.616412
-69.29946 30.48977 2.618928
-70.24994 30.13478 2.620159
-71.70896 37.5611 2.62163
-69.02534 30.6749 2.631503
-69.80836 30.185 2.640862
-65.20972 43.00513 2.643228
-69.54088 30.33808 2.645934
-73.16151 36.34064 2.647571
-76.58155 34.20165 2.66102
-64.99887 42.99929 2.687443
-70.4399 30.02958 2.717989
-73.23814 36.54294 2.730374
-65.07358 42.6264 2.736568
-65.02874 42.99333 2.873943
-79.15234 36.14031 2.909988
-64.55318 42.18195 2.911183
-78.74727 35.42182 2.917437
-79.06791 35.80871 2.919827
-71.70324 37.55639 2.928318
-79.30573 36.28963 2.933741
-76.585 34.16706 2.939639
-70.42377 30.04151 2.941784
-73.13051 36.4962 2.943491
-65.53895 43.65928 2.954032
-71.759 37.62405 2.967943
-64.99661 43.41836 2.978133
-68.88358 30.91062 2.980852
-76.63834 34.31241 2.989229
-70.55383 29.88616 2.996188
-69.30896 30.48279 3.007708
-69.01836 30.66459 3.008202
-70.18854 30.11424 3.015418
-73.22414 36.5452 3.017268
-70.64054 29.88898 3.026447
-69.80595 30.17641 3.027072
-70.10156 30.18433 3.031201
-78.97383 35.34157 3.033141
-69.55734 30.31715 3.038343
-69.81126 38.65586 3.045579
-73.13614 36.3287 3.058644
-78.72143 35.0224 3.080578
-77.74345 34.24717 3.083613
-77.7289 33.73588 3.084789
-79.29497 47.32839 3.087686
-79.39804 35.34104 3.098305
-79.05038 35.10341 3.103844
-79.09227 47.41611 3.104732
-80.259 35.10217 3.11086
-77.77574 34.51312 3.116533
-81.78831 45.68136 3.122139
-80.12463 35.36203 3.14673
-77.71195 48.98684 3.175036
-77.65647 33.72068 3.253011
-81.00372 46.30389 3.265043
-77.73148 34.18697 3.267326
-79.05991 47.4547 3.278372
-79.09323 34.7044 3.298823
-78.24744 34.62062 3.302451
-77.41008 34.45113 3.307788
-78.2263 47.47639 3.321536
-68.93778 30.98265 3.334834
-77.42427 34.26975 3.335124
-78.60457 34.6114 3.336931
-78.62344 47.39131 3.338201
-69.01357 30.68238 3.34254
-79.24969 35.23809 3.344797
-70.48957 30.04724 3.3553
-68.95235 30.93404 3.371815
-71.74001 37.63062 3.37198
-69.79504 30.21745 3.377163
-73.11805 36.53464 3.387035
-73.31059 40.97181 3.390465
-78.18931 34.30877 3.395998
-76.60826 34.31572 3.403601
-69.32512 30.48938 3.408138
-70.57375 29.8896 3.413308
-73.03008 38.56389 3.41475
-79.32863 34.59944 3.416005
-69.75578 38.67373 3.418793
-70.19387 30.18697 3.422679
-76.99605 34.29272 3.425944
-73.25606 36.60168 3.436192
-80.25401 35.10403 3.443868
-71.73697 37.55212 3.458309
-80.17529 35.37289 3.471171
-78.2377 34.25594 3.476267
-77.7914 47.12178 3.484793
-77.87908 47.32204 3.501279
-71.32163 31.65577 3.507766
-69.78622 30.50108 3.507951
-73.11314 40.24853 3.52107
-78.57383 34.27778 3.628091
-79.0379 50.67572 3.643321
-80.29306 34.9924 3.703789
-69.08911 31.23501 3.724497
-79.78158 34.65038 3.732506
-76.96854 34.29311 3.736161
-77.34891 34.52001 3.740377
-76.59973 34.28728 3.740459
-75.7869 49.74177 3.741891
-69.50169 30.71783 3.741961
-68.86684 31.21931 3.74209
-80.32702 35.31722 3.742167
-80.59978 35.36534 3.743356
-72.55452 30.50974 3.752682
-79.43309 34.60648 3.753893
-78.60913 50.63403 3.758276
-71.75369 37.62019 3.766285
-72.71995 30.37219 3.780427
-80.21989 34.69693 3.787436
-72.2433 30.69209 3.795806
-69.74763 30.60467 3.804029
-69.76752 38.65723 3.807589
-80.52351 35.06391 3.810047
-71.09264 31.78283 3.811699
-69.37172 30.85923 3.836285
-69.09659 31.05058 3.837181
-78.99728 34.55489 3.842532
-70.10458 30.43927 3.890769
-71.7156 37.63793 4.07105
-69.5388 30.77645 4.123584
-70.23821 30.45604 4.135525
-69.76828 38.67218 4.140723
-71.1315 31.7298 4.145972
-79.92297 33.73101 4.151283
-71.30102 31.66667 4.161109
-71.94425 30.88755 4.182199
-69.82234 30.59167 4.18316
-74.88146 49.46761 4.192342
-70.21345 30.45062 4.202413
-69.41418 30.86913 4.212874
-69.03685 31.11727 4.215655
-72.2953 30.64987 4.254762
-72.52655 30.51694 4.273998
-72.5689 30.51511 4.501415
-72.26945 30.65583 4.552557
-72.06203 30.83967 4.558072
-70.1483 30.43268 4.585757
-71.8067 30.93554 4.592278
-72.72227 30.35847 4.601334
-69.1116 31.21656 4.613557
-69.32617 30.92127 4.618677
-69.53408 30.77938 4.627944
-69.02556 31.13082 4.637154
-69.82321 30.59223 4.644179
-69.79902 30.60266 4.912906
-70.20131 30.43368 4.969219
-77.3542 48.1565 4.990016
-69.39996 30.85488 5.000863
-69.06387 31.10525 5.028072
-72.5051 30.5379 5.030207
-71.082 31.67771 5.041775
-69.03138 31.15875 5.341886
-69.79039 30.60716 5.769297
-69.01943 31.15611 6.218463
-85.34736 32.94371 -0.5764847
-85.03181 32.6578 -0.5755082
-82.98486 34.24118 -0.5751599
-84.6246 33.08863 -0.564596
-85.01107 33.01799 -0.5645508
-85.00443 33.04448 -0.5543532
-84.24547 31.49796 -0.5425189
-84.49282 33.32927 -0.5295029
-88.58485 26.93007 -0.528626
-85.02882 32.6955 -0.5283096
-85.26286 32.73265 -0.5281567
-88.63525 27.46288 -0.5235577
-87.88866 27.85903 -0.521327
-81.75545 29.78793 -0.519722
-86.98572 28.56968 -0.5188742
-84.72843 33.10342 -0.517864
-87.53067 27.83772 -0.516942
-83.06147 34.29946 -0.5065148
-81.4391 29.75951 -0.5056417
-84.32304 31.50094 -0.5052894
-81.13068 29.85887 -0.5009864
-83.97708 29.82886 -0.5004908
-85.26647 32.8999 -0.498551
-89.38194 26.29402 -0.4963286
-89.33733 26.9379 -0.492959
-79.80338 30.19993 -0.4888519
-78.97346 30.54845 -0.4872238
-79.48954 30.27983 -0.4871988
-78.20531 30.95729 -0.4856248
-89.76676 24.95051 -0.4758717
-89.7241 24.96688 -0.475193
-85.00497 26.95722 -0.4702755
-90.19141 24.60305 -0.470156
-85.83204 26.55298 -0.4691859
-85.38874 26.69159 -0.4659664
-89.35256 25.03426 -0.462705
-89.43439 24.70404 -0.4618557
-80.98119 28.1115 -0.4618523
-83.91665 29.89297 -0.4567536
-86.18519 26.23768 -0.454579
-87.01764 25.74814 -0.4544736
-84.27248 33.43097 -0.4539098
-81.56528 33.47434 -0.4531703
-88.58365 25.46645 -0.4515668
-87.79618 25.41089 -0.4495696
-88.08218 25.33304 -0.4492011
-85.82787 26.18148 -0.4477331
-86.6067 25.84493 -0.4470021
-84.60162 33.31707 -0.4329238
-90.66487 24.97375 -0.4141314
-83.8751 33.82529 -0.410963
-80.33823 31.97795 -0.3796006
-88.58195 23.28635 -0.3496216
-88.27645 23.4798 -0.3468477
-89.27841 22.83931 -0.3436018
-83.33096 34.21927 -0.3365657
-88.9817 23.02016 -0.3361998
-90.53235 22.07684 -0.3264376
-84.03845 29.55563 -0.3264132
-88.72492 23.13149 -0.3238193
-80.57113 32.0215 -0.3217171
-81.80721 25.40096 -0.3209946
-82.16708 25.02792 -0.3199801
-82.61187 24.66214 -0.3181852
-82.75733 24.26557 -0.3166946
-89.44839 22.72195 -0.3161226
-78.21842 27.02395 -0.3138794
-89.78392 22.51468 -0.3113399
-81.38246 25.13396 -0.3101047
-90.2019 22.25803 -0.3074519
-78.22723 27.29204 -0.3044925
-77.76537 27.81905 -0.3031304
-83.36515 23.86659 -0.3027744
-76.87427 28.55107 -0.3022592
-78.92673 27.36908 -0.2990234
-90.66569 21.91339 -0.2982642
-78.61463 27.5047 -0.2978877
-76.6416 28.89098 -0.2971232
-77.30997 28.58488 -0.2967932
-77.84138 28.2101 -0.2959889
-91.00537 21.74135 -0.2931834
-76.64904 29.36286 -0.2876278
-86.27325 21.29399 -0.2830026
-84.28224 22.02297 -0.2825295
-85.41805 21.37926 -0.2824331
-91.40592 21.47559 -0.2765716
-84.99467 21.69529 -0.2764678
-84.04442 29.66506 -0.2714008
-84.9924 23.87407 -0.2706373
-84.04292 29.51849 -0.270303
-85.77368 21.4338 -0.2699017
-85.38331 23.73261 -0.2690956
-81.36477 33.56472 -0.2577668
-85.44424 32.70592 -0.256043
-84.94157 33.00718 -0.2477013
-84.99733 33.06075 -0.2456424
-83.12617 34.33081 -0.2341319
-85.29906 32.86138 -0.2335735
-85.64877 32.51836 -0.2288466
-87.1031 27.49919 -0.2273712
-87.40647 27.39217 -0.2240259
-83.96009 29.77028 -0.2239069
-84.62202 31.34431 -0.2199874
-84.30407 33.54015 -0.2132039
-84.74172 31.23156 -0.2103466
-83.846 29.88889 -0.2050293
-83.94653 29.46394 -0.2032576
-84.61127 21.80469 -0.1942455
-84.61753 33.33163 -0.1929423
-85.48008 32.67626 -0.1908399
-83.82181 33.88027 -0.1897046
-83.39194 34.16243 -0.1874909
-84.12297 33.67886 -0.1842393
-84.6843 33.28187 -0.1706662
-87.31364 27.43 -0.1554479
-83.61483 34.01329 -0.1529001
-85.30759 32.87506 -0.1506932
-84.202 19.00148 -0.1492676
-83.08545 34.23647 -0.1483195
-74.66375 27.12034 -0.1434084
-84.70873 33.05701 -0.1328217
-84.96421 31.38427 -0.1316347
-85.53885 32.14799 -0.1160487
-85.36725 31.8215 -0.1153672
-85.63676 32.51141 -0.1076216
-76.97696 25.82067 -0.09259073
-76.59384 26.15905 -0.08810739
-80.29578 23.52528 -0.07959636
-85.02126 31.417 -0.0794894
-85.62908 32.35162 -0.07819548
-80.63509 23.31196 -0.07526203
-83.90396 29.52402 -0.06819846
-78.63329 24.57411 -0.06814598
-79.76095 23.85983 -0.06187136
-81.74499 22.58428 -0.06123948
-79.02948 24.32731 -0.05957321
-84.71498 33.1474 -0.05922154
-85.42216 21.16586 -0.05838338
-79.40845 24.08535 -0.05487437
-75.39607 26.62555 -0.04312896
-77.38416 25.35372 -0.03729402
-91.37395 18.52867 -0.03246612
-78.31243 24.7732 -0.03134853
-77.91821 25.02141 -0.03055928
-87.85957 19.44195 -0.02138089
-88.13066 18.61875 -0.02030762
-85.34669 32.85915 0.008661164
-74.94057 26.93015 0.0372152
-77.02543 25.81225 0.03897954
-71.31178 29.23631 0.04100421
-76.43013 26.27127 0.04230688
-76.5873 26.15533 0.04257217
-83.00364 21.10027 0.04568167
-78.88703 24.43355 0.04708553
-84.82978 33.2345 0.047133
-83.27544 21.53732 0.05090661
-75.3744 26.6489 0.05127401
-75.90208 26.30215 0.05264963
-76.2629 26.1675 0.05499338
-77.39876 25.3386 0.0552529
-76.96573 25.77404 0.0579146
-78.62989 24.5603 0.06403638
-77.83022 25.06128 0.06712142
-78.12486 24.87517 0.06897069
-87.94207 19.52202 0.06922745
-75.6728 26.44709 0.07088466
-77.1405 25.50444 0.07144239
-79.79099 23.82743 0.0724531
-79.52686 23.98598 0.0739861
-82.58938 22.15974 0.07813481
-80.9953 23.06752 0.07824696
-80.53694 17.72228 0.07847044
-80.11411 17.02922 0.07924869
-88.07294 18.66614 0.0800086
-78.31895 24.74514 0.08196825
-79.33698 24.11217 0.08517578
-80.09546 16.72831 0.0852013
-73.73727 27.68922 0.08575055
-81.50111 22.748 0.0860388
-80.60481 23.31773 0.08726069
-81.1058 18.63308 0.09012711
-87.52629 18.23224 0.09049302
-80.27439 23.51742 0.091015
-81.30361 22.86824 0.091885
-81.78453 22.56291 0.09217663
-81.41035 19.08877 0.09356706
-83.3313 21.81898 0.09607738
-83.35636 21.84573 0.0974934
-80.0945 23.62652 0.1003518
-82.47257 16.41362 0.1005322
-74.65354 27.08597 0.1031279
-83.119 21.31178 0.1031561
-82.54951 20.90142 0.1039267
-72.49771 28.46603 0.1043198
-78.99725 24.30576 0.1050287
-83.93836 29.55925 0.1053327
-82.97567 22.10975 0.1055209
-73.92656 27.54575 0.1055823
-82.20043 22.31206 0.1057489
-85.61334 32.52162 0.106078
-88.07661 18.96595 0.1061897
-84.97982 31.45643 0.1065427
-85.02617 32.90803 0.1073003
-82.93616 17.13728 0.108981
-82.8923 17.26538 0.1100682
-87.30186 27.44769 0.111192
-83.06947 20.17756 0.113182
-82.14069 20.27834 0.1132215
-82.98178 21.1188 0.1140347
-87.89439 18.47015 0.1145038
-87.96034 19.04668 0.115349
-82.90121 17.8093 0.1169572
-85.31013 31.86858 0.1171172
-84.01576 29.70484 0.1181152
-83.97805 18.76931 0.1183909
-76.12533 26.16769 0.1196632
-82.3145 20.56549 0.121274
-82.57349 22.17062 0.1214507
-74.23133 27.36066 0.1252302
-82.4327 20.75228 0.125581
-73.41536 27.8762 0.1258605
-83.90904 19.55749 0.1272347
-84.74237 33.17129 0.1284124
-81.83896 19.81719 0.1288946
-87.76565 19.74277 0.1311053
-87.73679 19.81535 0.1313172
-88.04932 19.00698 0.1318415
-81.52375 19.32767 0.1331327
-87.87726 19.45216 0.1334483
-87.89772 18.56406 0.1355754
-87.41117 19.8651 0.1360197
-72.20514 28.64252 0.1372472
-83.45219 19.84615 0.1396394
-72.98972 28.13487 0.1398265
-83.9713 18.91538 0.1406007
-87.70034 18.24451 0.1410838
-83.01215 34.32074 0.1417011
-85.48508 32.21569 0.1420379
-85.12627 31.67726 0.1431105
-83.77264 19.66248 0.1472796
-87.40413 19.82388 0.1476887
-71.01286 29.39859 0.1478478
-83.82992 33.87453 0.1483656
-85.62083 32.55978 0.1490622
-87.13473 19.90931 0.1512181
-83.45963 18.06699 0.1540137
-84.11057 33.68123 0.1556425
-81.5099 33.54429 0.1562395
-88.06087 19.34726 0.1563485
-82.56202 18.14199 0.1590365
-85.26579 32.87372 0.1596104
-84.75854 31.31055 0.1599109
-83.9759 19.54202 0.1623636
-83.929 29.77113 0.1640057
-84.98128 33.07816 0.167458
-80.55804 32.03169 0.1729821
-83.41845 34.13631 0.1738282
-84.59664 33.34781 0.1760726
-71.76926 28.91404 0.1801854
-83.1114 34.31801 0.1812737
-87.36964 27.43208 0.1906206
-83.80432 29.92938 0.191159
-81.33817 16.50143 0.1928285
-85.48893 32.62281 0.19336
-85.51949 32.6314 0.1936447
-80.46441 32.06899 0.2019278
-87.11295 27.50808 0.2076305
-72.65207 28.32787 0.2078997
-71.4162 29.12779 0.2147134
-83.9328 29.53509 0.2165699
-84.32146 33.51903 0.2182453
-87.10689 27.48929 0.2318695
-84.91499 31.41172 0.2496858
-82.23495 33.91996 0.3419618
-83.04169 34.2072 0.4295219
-83.04028 34.27098 0.441717
-85.25349 31.85029 0.4573478
-85.21796 32.82922 0.4602377
-84.93256 31.48705 0.4660556
-83.65749 34.17398 0.467599
-81.2491 22.8379 0.4890647
-83.43359 34.09158 0.493419
-82.62536 33.41692 0.5020569
-87.02294 19.81227 0.5029101
-83.40037 34.09424 0.5072212
-77.54408 25.18095 0.5113749
-76.97191 25.81424 0.5122198
-84.4962 33.30135 0.5127348
-84.89887 31.46389 0.521603
-80.57573 23.26028 0.5255861
-78.5827 24.51874 0.5269847
-76.44908 26.14045 0.5286719
-79.52701 23.91655 0.5320227
-77.08155 25.47609 0.533196
-86.63625 18.48779 0.5366496
-76.53869 26.06789 0.5389495
-77.80161 25.02031 0.541204
-84.98917 32.95379 0.5433772
-87.84026 19.7303 0.5442662
-83.00414 33.83207 0.5454421
-76.93835 25.55558 0.5454582
-78.98312 24.26922 0.5455832
-79.27953 24.08475 0.5475366
-78.25529 24.72689 0.5475546
-82.96758 20.28467 0.547619
-82.69083 22.11535 0.5481991
-77.33763 25.31411 0.549217
-76.11496 26.12671 0.5516036
-74.19158 27.32251 0.5531266
-83.48558 17.96737 0.5535824
-78.01033 24.88238 0.5535868
-87.3577 18.35335 0.5543033
-75.40655 26.53886 0.5549632
-87.12306 18.31253 0.5554749
-76.89815 25.76277 0.5562057
-80.36105 32.0719 0.5580361
-74.88599 26.87468 0.5588479
-79.79843 23.74985 0.5597991
-83.78835 33.73806 0.5609149
-84.7153 31.39635 0.5620892
-76.73906 25.93907 0.5631804
-75.84211 26.25881 0.5641385
-80.2467 23.46602 0.5663488
-84.86934 33.0305 0.5667907
-81.78759 22.48556 0.5682946
-75.10227 26.73005 0.5692589
-81.475 22.6832 0.5694459
-86.55515 19.38503 0.5696287
-82.85629 22.05523 0.5711523
-87.73539 19.64425 0.571304
-83.86577 29.56219 0.5717817
-83.90252 29.55823 0.5725865
-85.37576 32.55792 0.5735298
-87.13118 27.48761 0.5744027
-83.53449 18.0432 0.5752063
-73.44168 27.79691 0.5761611
-83.2217 21.45671 0.5805433
-85.37559 32.6248 0.5810087
-85.33671 32.20918 0.5815524
-83.92217 29.77971 0.5830407
-80.97475 22.99956 0.5841687
-83.83266 29.87879 0.5847988
-72.19167 28.60645 0.585102
-82.5988 33.00528 0.5853828
-84.05085 18.86816 0.5862191
-81.3112 19.08925 0.5881876
-72.60252 28.33973 0.5904303
-74.60811 27.05679 0.5919933
-72.89378 28.1522 0.5923095
-87.04529 18.30681 0.5926924
-83.67698 18.2795 0.5934488
-84.19417 33.45485 0.5960552
-87.69119 18.69575 0.5975878
-87.31692 27.43973 0.5980361
-73.86412 27.51966 0.6027368
-83.27292 21.77931 0.6038742
-84.70556 33.09981 0.607947
-86.57203 18.56275 0.6084642
-80.54569 32.04559 0.6104419
-87.69958 18.5013 0.6107755
-84.71178 31.4693 0.610891
-81.00821 18.62566 0.6134937
-85.02373 31.75781 0.6144294
-71.40199 29.11177 0.6181678
-80.47443 32.07979 0.6185211
-71.03701 29.34457 0.6193166
-71.73802 28.89617 0.6194898
-87.76279 18.98606 0.620223
-83.87457 18.59933 0.6216171
-82.57508 32.98454 0.6244109
-84.17812 33.47832 0.6252194
-87.73039 19.39535 0.6295141
-81.15448 18.86287 0.6313546
-87.78709 19.0063 0.6313847
-87.33376 27.44704 0.6315477
-83.45442 33.87731 0.6349303
-83.09508 21.86412 0.6372805
-73.68152 27.63746 0.6389629
-87.41829 19.78259 0.6391245
-82.88964 17.05402 0.6397662
-82.21701 22.22092 0.6402494
-87.14881 27.3733 0.6443599
-82.57571 22.07699 0.645924
-81.49569 19.35305 0.6459324
-73.17002 27.9643 0.6506454
-83.24083 21.7353 0.6515921
-82.54661 21.0173 0.6522669
-87.52967 18.5673 0.6526821
-83.4595 17.96188 0.6552904
-82.772 16.86779 0.6571068
-87.77298 19.47714 0.6578091
-82.60515 16.59986 0.6584914
-83.58361 19.17402 0.6635039
-83.43687 33.95544 0.6659337
-82.28457 20.63203 0.6659851
-83.03222 19.47677 0.6691779
-83.04513 21.38227 0.669675
-83.32674 19.33005 0.6697605
-82.92682 17.12683 0.6711598
-87.41086 19.83546 0.6734561
-83.81403 19.0138 0.6783433
-83.50351 18.11035 0.6826755
-84.99737 31.76428 0.6827015
-87.39439 18.35321 0.6827054
-87.13181 19.82278 0.6850188
-83.87651 18.9809 0.6880876
-81.70438 19.71078 0.6885914
-83.93655 18.68773 0.6978769
-87.57923 19.01561 0.6997174
-83.02573 33.37941 0.7013443
-85.17351 32.70699 0.7211282
-82.05329 20.28071 0.7224957
-87.53407 19.42954 0.7256193
-85.11852 32.07507 0.7536429
-82.92381 32.99755 0.7548138
-84.75423 31.65219 0.813428
-85.24731 32.58287 0.8178538
-83.52706 33.76857 0.8252741
-83.53516 33.78636 0.8305386
-83.06409 21.39404 0.8326392
-82.10214 20.35783 0.8418422
-82.11226 17.71446 0.8422011
-83.70293 33.65264 0.8468149
-82.51537 20.995 0.8508748
-84.89999 31.859 0.8515215
-82.59368 16.60804 0.8553669
-84.83069 32.88692 0.8563015
-83.86188 18.96327 0.856328
-82.87793 17.10147 0.856915
-82.5816 16.58749 0.8603017
-83.31828 19.32367 0.8673999
-83.10561 19.46063 0.8692477
-82.2845 20.64527 0.8708917
-84.87619 31.84317 0.8733167
-82.54169 17.42191 0.8747606
-85.04794 32.67968 0.8763339
-83.45241 33.39865 0.8769864
-81.93808 20.10712 0.8788348
-83.27411 21.77955 0.8792015
-83.81133 18.58515 0.8829806
-85.06129 32.16897 0.8832614
-84.69798 31.70686 0.8850284
-87.14345 27.44454 0.8859034
-80.72707 23.14639 0.8862603
-81.95754 22.37146 0.8893943
-80.72385 18.18084 0.8894245
-81.47575 19.39247 0.8933676
-82.73977 16.92649 0.8950208
-79.95209 16.52355 0.8957319
-83.87585 33.49274 0.8958046
-82.17715 22.23644 0.8970004
-83.33639 33.07542 0.8980654
-81.71903 19.76186 0.9028526
-83.83132 29.57339 0.9042073
-80.97452 23.00272 0.9044342
-84.59974 33.01143 0.9044995
-83.16335 32.97586 0.9064428
-81.78053 22.4912 0.9093326
-84.1736 33.30622 0.9094165
-72.6232 28.33239 0.9109257
-80.5471 23.26914 0.9121959
-72.93848 28.13915 0.9144238
-83.10099 21.87195 0.915487
-83.83559 33.53178 0.9156859
-81.45578 22.69981 0.9162354
-83.72858 33.64272 0.9163315
-82.86506 22.05277 0.9203129
-85.06151 32.63427 0.9215167
-82.70172 22.1163 0.9230484
-84.23869 31.8891 0.9243655
-82.5955 22.0955 0.92476
-83.22154 21.47502 0.9251515
-79.52192 23.91576 0.926029
-81.24132 22.84182 0.9268204
-80.23263 23.46847 0.931139
-72.22121 28.59395 0.9315014
-80.98476 18.59733 0.9438934
-79.8138 23.73281 0.9519515
-73.44443 27.81324 0.9536437
-83.73911 32.16692 0.9536544
-83.89465 29.80003 0.9556186
-84.55439 33.01636 0.9558084
-87.31326 27.46926 0.9597891
-79.28155 24.07437 0.9642715
-79.81992 16.28266 0.9672616
-78.95433 24.28481 0.968627
-76.97966 25.82133 0.9686617
-73.6972 27.66212 0.9713587
-84.16472 33.29333 0.9733487
-73.88001 27.53016 0.9799666
-81.28182 19.07325 0.9823316
-74.19582 27.33798 0.9826425
-80.47038 32.09381 0.9889013
-76.74794 25.94927 0.9889975
-84.32598 33.12642 0.989738
-78.55856 24.53249 0.9901419
-77.56714 25.1611 0.9924654
-83.82516 29.86593 0.9950522
-78.24026 24.73164 0.9957532
-80.53745 32.07505 0.9975873
-87.34245 27.4238 0.9988257
-87.15079 27.53326 1.000174
-76.54466 26.07234 1.000761
-76.44492 26.15645 1.002613
-77.36282 25.30024 1.004014
-71.04887 29.34851 1.004174
-77.82887 24.99776 1.008425
-77.07166 25.48804 1.010598
-74.91652 26.86555 1.011031
-75.39764 26.55101 1.011796
-79.31744 15.93418 1.016404
-76.90012 25.77147 1.017098
-71.39048 29.12294 1.018294
-76.12263 26.11629 1.021117
-75.83919 26.27039 1.027083
-71.72411 28.91586 1.028756
-78.03896 24.85492 1.031733
-74.60242 27.06478 1.038815
-75.14555 26.70026 1.042526
-76.90897 25.57806 1.083847
-71.96469 28.76542 1.289454
-74.94084 26.86211 1.324873
-82.67967 22.1015 1.344458
-76.45419 26.143 1.350224
-83.87263 29.7931 1.351571
-72.20744 28.60271 1.353008
-73.88499 27.51107 1.3597
-80.48697 32.1276 1.359763
-80.46108 32.09638 1.364445
-82.86436 22.05576 1.371804
-71.72335 28.91087 1.372018
-73.39647 27.84164 1.372932
-72.6171 28.33526 1.3739
-80.42527 31.98608 1.374635
-73.17352 27.96692 1.375712
-87.1688 27.61787 1.377889
-87.31504 27.43784 1.381345
-72.93853 28.13535 1.383752
-72.44495 28.43687 1.384891
-74.19462 27.32424 1.385867
-87.21847 27.63302 1.386199
-76.88292 25.77635 1.39267
-71.39724 29.12128 1.392802
-83.82456 29.84095 1.395345
-82.19337 22.22507 1.398292
-81.24068 22.83598 1.400779
-76.71867 25.96506 1.401402
-83.23639 21.76543 1.402609
-80.55909 23.26761 1.404518
-81.49821 22.6733 1.408792
-74.59878 27.05408 1.409127
-75.83192 26.27029 1.410663
-71.02869 29.35833 1.410906
-81.77744 22.49431 1.412563
-73.64399 27.67395 1.413993
-83.2226 21.45817 1.415127
-80.2582 23.45845 1.416176
-87.31676 27.43981 1.416555
-76.5263 26.08121 1.41863
-76.13836 26.12608 1.418644
-82.62611 22.08631 1.422037
-76.97507 25.82065 1.429346
-75.36478 26.56433 1.429398
-83.11642 21.82813 1.429809
-77.35986 25.30684 1.431455
-80.36741 32.10613 1.433645
-77.09272 25.47354 1.435307
-80.03979 16.64474 1.435511
-83.21379 21.45899 1.435896
-80.95176 23.01523 1.441457
-77.83041 25.00292 1.442698
-87.24947 27.62269 1.4434
-79.97366 16.50762 1.443477
-75.63042 26.41572 1.444139
-79.79205 23.75252 1.444707
-79.79819 16.24561 1.445204
-81.97318 22.36951 1.447843
-87.18556 27.4692 1.447974
-75.05337 26.73023 1.45122
-80.27158 17.4485 1.451994
-79.27277 24.09078 1.458334
-79.27448 15.86937 1.458703
-78.99183 24.26325 1.460723
-80.04182 16.62034 1.461852
-79.43957 16.11047 1.461914
-78.25181 24.74006 1.462891
-80.71425 18.15444 1.46406
-79.92604 16.92616 1.468633
-83.2686 21.75968 1.470925
-79.48293 23.9498 1.473108
-81.16006 18.86509 1.481179
-79.94344 16.56795 1.484156
-78.60195 24.51375 1.484661
-80.38464 17.63702 1.487072
-77.54892 25.1649 1.488587
-83.78905 29.57215 1.489887
-80.97499 18.57694 1.490019
-81.31933 19.11871 1.490307
-80.52773 17.85944 1.491095
-83.02548 21.34645 1.493358
-81.47697 19.36823 1.496278
-82.2586 20.59755 1.496528
-80.06364 17.14215 1.498007
-81.93815 20.09551 1.500468
-83.05178 21.39492 1.505007
-81.76716 19.82531 1.508038
-80.72068 23.15396 1.510653
-82.52055 21.00865 1.515293
-81.61768 19.58043 1.518736
-82.6621 21.22193 1.522985
-82.06178 20.28695 1.532696
-82.10765 20.35705 1.619381
-82.27668 20.64781 1.626588
-81.69922 19.75803 1.627431
-80.97792 18.60887 1.631805
-81.44864 19.3628 1.650431
-79.34116 15.90819 1.650541
-82.5509 20.99596 1.651897
-81.26971 19.04854 1.659269
-80.23595 17.44868 1.6623
-81.83167 20.13521 1.66592
-80.47893 17.81599 1.665936
-87.23322 27.67032 1.670931
-81.13065 18.8522 1.674527
-81.00345 18.65198 1.6752
-80.63297 18.23577 1.684553
-80.69786 23.16108 1.711039
-83.07913 21.42185 1.716014
-83.15956 21.78753 1.724215
-81.9643 22.35287 1.726715
-81.34829 19.80054 1.727783
-79.94351 16.72633 1.734764
-80.13701 23.46144 1.740194
-80.37362 31.97937 1.74811
-80.95702 22.96149 1.756644
-79.97142 23.46842 1.757003
-79.94308 16.50137 1.75713
-82.15421 22.23672 1.757515
-81.45058 22.61816 1.757923
-80.03124 16.61898 1.767061
-76.46879 26.14432 1.767111
-80.56562 18.56781 1.767252
-80.44598 32.1019 1.771457
-81.75468 22.51566 1.773493
-74.61744 27.03659 1.776905
-80.57213 23.25002 1.776951
-83.86266 29.78017 1.777267
-80.29437 18.14672 1.777467
-74.23814 27.27821 1.781845
-80.04084 23.62265 1.7819
-83.78531 29.57259 1.78923
-80.11881 17.80883 1.791058
-73.67997 27.46653 1.791827
-83.7972 29.83941 1.791854
-73.40813 27.83529 1.792781
-76.53697 26.08068 1.794559
-76.3475 26.1331 1.79642
-79.42231 23.92901 1.798111
-75.36861 26.56753 1.798147
-82.73332 22.14573 1.79899
-77.42577 25.27437 1.801955
-79.7892 17.40079 1.805495
-79.78555 23.7501 1.80563
-80.97889 23.01742 1.809752
-79.97248 17.68876 1.811573
-75.35947 26.60169 1.813994
-83.26992 21.77468 1.815604
-73.09186 27.98108 1.816033
-78.61031 24.49937 1.818681
-87.29197 27.41393 1.818889
-75.88093 26.27876 1.821596
-79.72619 16.98143 1.827899
-83.08782 21.92532 1.828045
-78.92656 15.87709 1.829973
-78.76749 24.35806 1.830673
-82.85854 22.06906 1.83276
-75.76843 26.28691 1.833664
-79.75855 16.21332 1.837111
-76.87714 25.78988 1.837522
-89.44561 27.05055 1.837852
-74.70686 26.7042 1.838217
-89.33015 27.39902 1.839129
-83.22665 21.48503 1.842444
-82.11151 22.30159 1.844901
-73.66707 27.64765 1.84547
-77.80254 24.98468 1.847204
-80.37139 32.10684 1.847536
-81.47409 22.61295 1.849719
-71.63665 28.97718 1.850718
-77.36609 25.27993 1.852239
-72.21603 28.58882 1.852964
-78.22459 24.58276 1.853033
-76.98374 25.83292 1.855622
-87.28685 27.47456 1.859137
-77.88382 24.70724 1.868881
-89.4458 27.06174 1.869208
-89.11524 27.4963 1.870594
-73.13613 28.03224 1.873546
-89.27779 27.67323 1.874213
-71.05428 29.33361 1.874473
-78.91386 24.2195 1.875445
-79.45461 23.94353 1.87592
-72.49074 28.43878 1.884187
-75.04567 26.59604 1.886129
-72.59267 28.292 1.891543
-71.44813 29.07113 1.891815
-72.1151 28.6818 1.891924
-76.71704 25.95162 1.898669
-78.76083 15.68818 1.901081
-78.92599 24.32687 1.901504
-72.65549 28.18948 1.902392
-77.55471 25.14435 1.906676
-79.73175 16.1653 1.911978
-89.15742 27.4061 1.912112
-76.96722 25.38937 1.922341
-89.24746 27.72599 1.925558
-89.20905 27.42609 2.008885
-78.60294 24.50417 2.056584
-77.88897 24.62573 2.117135
-88.96864 26.18649 2.121825
-89.41522 26.64881 2.139284
-73.68648 27.68233 2.139326
-89.29015 26.96454 2.143946
-88.94597 26.60785 2.159397
-80.44474 32.08088 2.162205
-77.80416 25.00967 2.16444
-89.3765 26.69187 2.167458
-80.05781 23.62018 2.179387
-80.42702 32.14762 2.183518
-71.03851 29.33993 2.18687
-76.88184 25.75313 2.187481
-79.93138 16.45454 2.189883
-83.76987 29.57777 2.191332
-77.35743 25.30273 2.191637
-83.11475 21.38158 2.191699
-75.77077 26.2684 2.191967
-76.50439 26.11406 2.192499
-79.66159 17.04885 2.193997
-73.06583 27.95724 2.194598
-88.95343 25.96021 2.195599
-76.53278 26.08447 2.202132
-81.54233 22.65532 2.203324
-83.77148 29.87309 2.203773
-89.41977 27.13352 2.207238
-77.39695 25.2955 2.207544
-71.45444 29.08408 2.207898
-89.03004 26.89031 2.214208
-74.60853 27.02937 2.217139
-73.72269 27.65395 2.218003
-81.47446 22.60734 2.218103
-71.245 29.23789 2.219039
-83.83898 29.81107 2.219053
-73.38153 27.85739 2.221419
-81.74281 22.51365 2.222121
-76.75262 25.41615 2.224164
-80.04391 16.63944 2.22451
-75.37872 26.55349 2.226203
-82.86655 22.05857 2.226975
-73.10835 28.0373 2.228575
-77.01831 25.3377 2.230547
-80.70662 23.15495 2.230616
-80.37711 31.98051 2.231193
-83.06901 21.85561 2.231757
-78.19373 24.50519 2.235565
-72.55569 28.30505 2.23586
-82.73586 22.12929 2.237875
-76.75932 25.93817 2.23794
-78.599 24.50998 2.238642
-80.94799 22.99243 2.240183
-82.09588 22.24555 2.240434
-75.31623 26.62193 2.241198
-82.70639 22.09649 2.243386
-74.24065 27.27613 2.243649
-87.28181 27.46186 2.244568
-79.45116 23.91644 2.245657
-74.27574 27.30208 2.246335
-72.5344 28.42137 2.246652
-72.11355 28.67365 2.246695
-78.89809 24.28082 2.247455
-76.94157 25.84809 2.248177
-83.2261 21.77033 2.253596
-71.64907 28.95771 2.25361
-74.67478 26.68957 2.259213
-80.5632 23.27958 2.260122
-72.19901 28.58418 2.261815
-83.24961 21.76121 2.262342
-80.56782 23.25206 2.263863
-82.1338 22.28567 2.26521
-88.29829 26.0373 2.268371
-78.95669 24.31367 2.268707
-75.88136 26.28465 2.270343
-83.05739 21.4045 2.273013
-79.80159 23.75493 2.273157
-81.04728 22.96222 2.276943
-82.88952 21.18275 2.283802
-88.28644 25.88531 2.28418
-79.52272 23.94795 2.284366
-88.63821 25.89362 2.284829
-88.65758 26.21951 2.285371
-79.95991 23.41668 2.286902
-80.03693 23.60959 2.293228
-73.69522 27.47951 2.295202
-81.96709 22.36437 2.296678
-81.83754 20.60109 2.302061
-80.28757 18.15903 2.303187
-74.94458 26.58633 2.304409
-78.74908 15.6975 2.304783
-80.11751 23.36576 2.307421
-72.6795 28.22052 2.309284
-88.7212 26.62146 2.309829
-83.22831 21.49598 2.309953
-81.07464 19.38447 2.312261
-74.85722 26.54704 2.312372
-81.67137 20.31719 2.312745
-79.98564 17.70097 2.317595
-81.30009 19.79458 2.317616
-81.95884 20.83599 2.318695
-79.40769 24.00793 2.321344
-80.54836 18.6041 2.322072
-80.87926 19.04955 2.322856
-82.08845 21.0588 2.325838
-80.71939 18.86562 2.325967
-81.50067 20.10684 2.326
-80.07246 17.80305 2.329564
-83.10781 21.87255 2.329602
-79.77528 17.38964 2.331255
-78.84209 15.8908 2.333992
-79.03955 16.19057 2.337658
-88.71811 26.84248 2.355289
-79.81441 23.74474 2.366747
-90.64367 23.47075 2.374038
-88.32808 25.82787 2.424049
-81.97195 20.85286 2.452157
-81.81499 20.57623 2.458325
-82.23739 21.27977 2.468679
-82.08276 21.04443 2.468756
-90.67316 23.66899 2.473176
-81.65417 20.27562 2.479429
-81.49524 20.10814 2.480278
-81.30635 19.83174 2.486946
-80.88712 19.09275 2.4916
-81.17711 19.61598 2.496994
-81.07489 19.40553 2.513119
-90.6556 23.38102 2.522726
-79.94675 16.61081 2.525098
-88.55675 26.66595 2.525365
-80.74155 18.90043 2.528257
-79.94857 17.66035 2.537582
-80.52362 18.59842 2.542566
-77.90059 24.98576 2.544339
-90.63062 23.35231 2.545843
-71.05723 29.36347 2.550832
-78.55766 24.53525 2.552618
-83.79716 29.91945 2.552882
-80.29332 18.18615 2.554236
-79.50145 23.9544 2.557593
-76.95747 25.30736 2.557635
-72.46555 28.4559 2.563598
-88.50728 25.82541 2.568575
-80.10763 17.85267 2.568686
-83.07106 21.42001 2.569051
-72.18748 28.60954 2.569743
-79.95298 23.43714 2.575845
-71.65881 28.90928 2.576656
-76.69683 25.95882 2.57825
-88.59879 26.14517 2.581003
-80.37698 32.05625 2.581443
-82.75481 22.1246 2.588154
-80.56096 23.25609 2.590427
-81.07044 22.72892 2.592845
-77.54207 25.16217 2.592879
-87.31346 27.50778 2.592883
-80.68401 23.14589 2.594272
-73.08679 27.94814 2.596889
-71.46324 29.0801 2.597678
-77.38749 25.31006 2.599301
-80.96329 22.96925 2.599798
-72.60941 28.29732 2.604559
-78.94992 24.32072 2.604989
-78.8575 15.95715 2.605666
-81.44607 22.60456 2.606952
-83.81654 30.02794 2.607675
-73.10331 28.03654 2.607954
-79.57376 17.0686 2.608673
-83.27436 21.75358 2.608826
-79.79295 23.74627 2.609819
-76.88268 25.80305 2.610033
-78.88081 24.23328 2.61338
-89.62933 28.1049 2.613768
-77.3826 25.27889 2.614349
-83.83863 29.81737 2.615239
-77.81139 24.97464 2.616384
-83.08198 21.82932 2.616482
-76.76599 25.4001 2.616501
-80.33514 31.98264 2.616927
-75.38149 26.57066 2.618848
-79.67194 17.02364 2.620514
-79.75465 17.38903 2.620717
-76.34258 26.12572 2.621475
-80.01807 23.43175 2.622563
-80.23088 23.17669 2.624493
-78.58533 24.51858 2.624586
-81.45728 22.60414 2.627112
-77.88213 24.68434 2.627743
-76.53865 26.07864 2.629543
-78.96065 16.10886 2.629841
-71.04897 29.34133 2.630883
-83.23259 21.79436 2.631204
-91.03415 23.81258 2.632041
-79.47257 23.91184 2.632641
-73.6814 27.66733 2.641485
-81.76659 22.51098 2.64158
-80.02058 16.63173 2.641888
-83.08311 21.88342 2.642534
-75.05174 26.6142 2.642967
-74.60582 27.03334 2.644804
-72.12792 28.66987 2.644922
-75.31092 26.63351 2.645175
-79.72359 16.18146 2.645492
-75.75623 26.27664 2.646019
-73.38501 27.86517 2.647306
-90.63953 23.06319 2.647693
-82.07084 22.26263 2.651786
-78.30577 24.58766 2.652591
-74.68143 26.73307 2.653762
-82.85398 22.06684 2.658812
-79.57762 17.10476 2.66119
-90.96326 23.44596 2.664464
-80.99467 23.01351 2.66607
-87.30193 27.62501 2.667768
-73.76521 27.41084 2.668665
-89.55922 28.09 2.669796
-82.11966 22.29851 2.672994
-78.75388 15.73288 2.674572
-74.2216 27.27734 2.674758
-88.52031 25.47626 2.680736
-80.07343 23.61077 2.682972
-76.92291 25.85155 2.685965
-82.74667 22.12723 2.693429
-76.49697 26.13751 2.69443
-87.35246 27.48629 2.694929
-89.62791 22.2631 2.70565
-80.54135 23.29007 2.709778
-79.76012 16.21712 2.712007
-73.70786 27.677 2.713037
-90.74857 24.58823 2.713324
-91.27903 22.9335 2.715222
-75.896 26.2786 2.727298
-88.27074 26.86545 2.734259
-83.21839 21.4851 2.740784
-75.6645 26.43138 2.748119
-82.15895 21.90716 2.782884
-80.23814 23.15988 2.889769
-83.78171 29.86996 2.897159
-76.91507 25.42424 2.897594
-87.86268 27.0622 2.89762
-78.73528 24.34843 2.900987
-91.3402 22.71845 2.908412
-84.0493 28.83053 2.916326
-71.56818 28.70108 2.918455
-89.45113 22.26993 2.919058
-76.70022 25.95342 2.924752
-83.23136 21.4729 2.925934
-73.67983 27.46437 2.928949
-90.95636 22.62363 2.929787
-73.035 27.95053 2.93161
-72.66306 28.18358 2.93291
-79.49196 23.95829 2.93459
-77.84701 25.00581 2.937288
-80.08047 23.36308 2.943279
-71.62478 29.01564 2.94384
-77.35574 25.28275 2.946887
-89.15939 27.78642 2.949474
-83.7029 29.50781 2.951993
-71.2896 29.22827 2.952539
-75.10402 26.60353 2.958263
-77.53969 25.14994 2.959999
-89.3848 28.19949 2.962435
-80.54556 23.28818 2.963208
-71.05604 29.34661 2.967998
-82.56636 21.8848 2.971215
-78.5988 24.51708 2.971978
-77.80853 24.98458 2.972213
-80.3729 32.07427 2.97453
-71.47665 29.08575 2.977083
-79.7691 23.76271 2.980046
-76.96946 25.84124 2.980621
-72.60029 28.2724 2.980958
-78.20238 24.54723 2.98468
-76.86508 25.77575 2.985014
-79.73757 16.18914 2.985305
-83.0462 21.39669 2.985705
-83.79671 29.7637 2.988977
-81.06239 22.67413 2.989433
-72.1493 28.6727 2.990432
-89.26762 27.92006 2.991762
-78.94098 24.32544 2.992889
-79.79036 23.76075 2.993442
-78.48765 24.59231 2.99549
-82.73701 22.0722 2.998459
-79.43906 23.91597 2.999012
-73.42401 27.83289 2.999443
-79.95388 23.45534 2.999835
-89.50288 22.5073 3.000583
-74.5955 27.07358 3.005011
-76.38783 26.12824 3.005709
-74.25993 27.28726 3.006847
-81.79638 22.47207 3.006993
-73.14751 28.02477 3.009037
-76.75714 25.43658 3.009344
-81.9453 22.36441 3.011014
-87.36975 27.49079 3.013926
-80.04783 23.61773 3.016629
-80.67683 23.15512 3.019052
-78.91371 24.23168 3.022021
-83.15057 21.79214 3.022286
-83.21955 21.84935 3.022297
-71.64949 28.99105 3.022406
-83.08747 21.87311 3.023076
-82.21863 21.87413 3.023856
-80.55954 23.26646 3.024609
-72.16195 28.60728 3.024781
-90.58238 24.99504 3.025504
-77.37686 25.30693 3.025777
-75.74271 26.29634 3.027315
-82.75532 22.12549 3.029371
-77.90918 24.64119 3.032494
-75.37502 26.57103 3.035081
-71.06218 29.36444 3.039826
-82.07826 22.20677 3.0404
-72.53488 28.43071 3.040936
-79.96962 16.57248 3.041453
-74.67836 27.06074 3.041541
-82.85191 22.06126 3.042957
-81.8703 20.62337 3.043215
-80.02592 23.6407 3.046363
-74.69572 26.65932 3.046697
-78.7438 15.69465 3.048273
-80.99904 23.00732 3.048733
-80.93981 22.99743 3.049498
-87.35078 27.62543 3.050509
-73.09219 27.96511 3.051081
-78.84508 15.90103 3.051475
-76.53995 26.07109 3.057848
-76.48978 26.13973 3.060125
-89.10754 30.12678 3.063715
-81.66793 20.303 3.064376
-81.74198 22.51132 3.064568
-81.06408 19.37527 3.064599
-89.3642 28.61037 3.072163
-80.87206 19.04892 3.074021
-79.68162 16.94513 3.076515
-73.68663 27.67984 3.080256
-83.83865 28.26919 3.087664
-81.44402 22.57822 3.090231
-84.10447 28.21753 3.092504
-83.25994 21.78181 3.092505
-75.32564 26.64017 3.097733
-80.56596 18.62564 3.100113
-81.27687 19.75121 3.100124
-79.75517 17.37078 3.101856
-80.03098 16.63509 3.104421
-82.87344 21.19057 3.104558
-81.47624 20.07244 3.110048
-81.96754 20.84 3.11393
-89.69107 28.19275 3.130615
-82.07671 21.05235 3.130924
-80.10336 17.86925 3.133907
-89.45019 28.91286 3.134796
-80.31386 18.20418 3.142889
-82.13877 22.2966 3.144761
-81.54868 22.65615 3.14514
-73.78659 27.63101 3.151275
-74.25359 27.3103 3.15626
-75.6422 26.43321 3.171977
-79.94901 17.66702 3.174541
-80.74762 18.90941 3.175723
-79.04186 16.18222 3.179718
-79.59164 17.10125 3.18045
-88.8961 21.65048 3.251655
-82.08615 21.07802 3.266423
-82.54863 21.35587 3.268019
-81.78114 20.56489 3.278635
-82.24041 21.30131 3.27976
-89.33428 22.51299 3.284373
-76.93953 25.84274 3.285453
-88.87521 21.45719 3.289626
-81.96371 20.85977 3.290281
-81.49712 20.12383 3.291512
-83.52605 29.6866 3.292421
-77.5684 25.15401 3.293357
-89.35477 28.71469 3.295219
-81.05811 22.637 3.297312
-73.09418 27.97376 3.29938
-82.14147 21.89344 3.302788
-81.30431 19.81304 3.30494
-89.28416 22.23808 3.306283
-79.73675 16.17163 3.307353
-81.08292 28.13384 3.308406
-81.4444 22.57778 3.309266
-83.9145 28.22149 3.309485
-72.22906 28.6012 3.309876
-80.975 23.0131 3.310705
-88.66409 29.79131 3.311304
-73.64949 27.49041 3.31544
-75.33235 26.6265 3.316466
-72.66447 28.35839 3.317426
-82.08159 22.2293 3.31927
-72.62211 28.33504 3.321271
-78.84122 15.90287 3.321505
-89.0095 28.26315 3.323136
-79.52099 23.90512 3.323212
-89.36272 28.97897 3.32669
-81.53529 22.64471 3.327002
-77.41406 25.32313 3.328838
-78.99588 16.15169 3.330894
-80.55081 23.28304 3.331443
-81.73682 22.53123 3.331839
-83.95206 29.11761 3.332243
-83.25339 21.45092 3.333374
-83.77303 29.85762 3.334381
-80.03577 23.5056 3.337069
-72.12972 28.65231 3.338381
-78.58607 24.52245 3.338495
-73.67197 27.69518 3.341467
-78.88515 24.31571 3.342039
-88.59059 30.15199 3.342224
-80.74109 18.90576 3.343576
-78.71969 15.67889 3.343586
-80.57024 23.25151 3.345058
-73.40153 27.8702 3.345333
-80.94347 22.98733 3.346065
-80.84844 19.07999 3.350538
-80.07581 23.61698 3.351387
-76.89477 25.79651 3.352281
-72.53319 28.45446 3.353003
-83.07301 21.42403 3.353173
-78.95211 24.31801 3.353801
-80.7004 23.14248 3.357372
-81.64183 20.30993 3.358313
-73.73792 27.72287 3.360629
-81.04621 19.38296 3.360763
-79.83842 23.74184 3.361094
-74.61368 27.0239 3.3613
-83.22693 21.75143 3.362971
-77.36464 25.30068 3.367243
-88.52425 30.61197 3.367285
-87.34782 27.50486 3.36985
-76.50378 26.08704 3.370592
-79.71151 17.00378 3.373047
-82.72141 22.10707 3.373167
-80.53588 18.6018 3.37483
-79.49706 23.95914 3.375699
-82.87215 22.05269 3.38274
-71.27459 29.25228 3.385327
-87.36794 27.62781 3.386107
-71.54726 28.72275 3.386791
-76.74725 25.44688 3.389542
-89.90374 24.64083 3.390015
-83.08253 21.90415 3.390449
-75.05643 26.58628 3.391383
-73.41069 29.88043 3.393101
-88.7452 21.7294 3.394087
-78.52326 24.58474 3.394179
-81.09737 28.17512 3.397975
-79.95367 16.5235 3.401453
-75.39504 26.55707 3.405649
-80.26953 18.17427 3.405922
-71.05171 29.34016 3.407212
-76.70351 25.96384 3.408653
-79.96555 17.68139 3.40924
-77.8081 25.03323 3.410718
-89.02891 28.55827 3.411779
-73.1247 28.03096 3.413478
-78.17878 24.54621 3.413532
-71.48271 29.06017 3.413731
-80.06556 17.82788 3.421716
-88.68212 21.53835 3.421749
-77.88623 24.63587 3.425586
-74.24527 27.31577 3.432062
-75.74178 26.31415 3.43285
-88.993 30.56492 3.433142
-88.86765 29.52354 3.434677
-79.89207 23.70855 3.438163
-83.54504 26.23366 3.441689
-79.77334 17.40061 3.443826
-80.32858 32.07185 3.444747
-71.68787 28.90116 3.453146
-71.75386 28.67941 3.454593
-79.57668 17.05255 3.455069
-82.75069 22.11198 3.455268
-87.7547 27.36264 3.45578
-89.01848 21.40384 3.457065
-83.74565 26.92967 3.457495
-83.86811 27.39368 3.460025
-77.00042 25.4021 3.463841
-84.18848 28.9339 3.4666
-79.78082 16.24023 3.468012
-88.65635 28.47631 3.476177
-84.14651 30.17518 3.476219
-77.84466 25.01237 3.476532
-76.22837 26.20236 3.477462
-80.02722 16.63954 3.47962
-79.83733 17.48679 3.481435
-75.43098 28.58806 3.504268
-77.40791 26.18294 3.512945
-83.81512 26.28522 3.523199
-76.24458 27.76987 3.527077
-75.87841 28.17305 3.527626
-74.95911 28.94412 3.532674
-83.28557 21.33758 3.542655
-84.13344 29.43392 3.547529
-83.87245 20.99524 3.584477
-77.84225 26.21183 3.619568
-79.7551 17.34083 3.622357
-83.83414 21.04724 3.622389
-76.08611 26.60958 3.623053
-78.62148 24.69715 3.625547
-77.73566 26.65414 3.625705
-79.65553 17.08142 3.627176
-77.91245 24.97943 3.627285
-78.52222 25.83704 3.628452
-81.68915 22.52888 3.63311
-84.21167 26.52924 3.63335
-80.9619 24.97554 3.642643
-81.82143 23.0945 3.647602
-83.94547 28.11677 3.648446
-84.13975 26.18027 3.648925
-80.63708 23.34615 3.649605
-83.13574 21.74428 3.650918
-78.96201 15.8518 3.655683
-79.06168 25.0717 3.656657
-80.59779 23.73637 3.660246
-80.97112 23.02146 3.660937
-87.84653 27.36996 3.66278
-88.55412 28.66775 3.664844
-88.60126 28.32838 3.665056
-80.55206 24.21126 3.668654
-81.8772 23.43528 3.673408
-79.74431 16.16201 3.679727
-84.26517 30.18191 3.681354
-84.31516 29.30452 3.687029
-81.23459 22.85884 3.687353
-89.87238 25.30764 3.687629
-83.00826 23.46703 3.688378
-82.61466 22.21183 3.692511
-83.41903 23.48477 3.69434
-83.84324 27.78016 3.696193
-82.19051 22.96954 3.701361
-83.03879 23.00118 3.70212
-83.40167 22.19398 3.704715
-84.09187 20.99477 3.707454
-83.38196 23.01025 3.708484
-80.14916 25.41896 3.71327
-84.1343 29.00114 3.713966
-83.42317 19.11646 3.714314
-83.37645 22.54764 3.716994
-80.31622 32.06181 3.722161
-88.33788 28.50326 3.722528
-83.39206 20.24477 3.728373
-83.45429 20.4624 3.73449
-83.75016 19.71223 3.734573
-84.0849 23.42607 3.735493
-84.1748 27.0302 3.738863
-74.65594 29.12263 3.74364
-82.59144 19.76216 3.743861
-82.62596 19.0701 3.745225
-83.92977 23.00137 3.745437
-82.1656 19.47582 3.746537
-81.83833 16.73927 3.746554
